# .PCD v0.7 - Point Cloud Data file format
VERSION 0.7
FIELDS x y z
SIZE 4 4 4
TYPE F F F
COUNT 1 1 1
WIDTH 1747
HEIGHT 1
VIEWPOINT 0 0 0 1 0 0 0
POINTS 1747
DATA ascii
-0.9772532 -0.32468382 1.881
-0.9814207 -0.32468382 1.881
-0.98715997 -0.32520166 1.8840001
-0.99133396 -0.32520166 1.8840001
-0.99550802 -0.32520166 1.8840001
-0.99968213 -0.32520166 1.8840001
0.99968213 -0.32937568 1.8840001
0.99762166 -0.33007503 1.8880001
0.99343878 -0.33007503 1.8880001
0.98925591 -0.33007503 1.8880001
0.98298597 -0.32937568 1.8840001
0.98089004 -0.33007503 1.8880001
0.97825909 -0.33059949 1.891
0 0 0
0 0 0
0 0 0
0 0 0
0.95579267 -0.33007503 1.8880001
0.94808155 -0.32885122 1.881
0.94040149 -0.32762742 1.8740001
0.93275243 -0.32640362 1.8670001
0.92662644 -0.32570431 1.863
0.92249894 -0.32570431 1.863
0.91492075 -0.3244805 1.8560001
0.91277176 -0.32517985 1.8600001
0.91353607 -0.32692811 1.8700001
0.91474241 -0.32885122 1.881
0.9120273 -0.32937568 1.8840001
0.9097808 -0.33007503 1.8880001
0.90895545 -0.3312988 1.8950001
0.90475708 -0.3312988 1.8950001
0.90055865 -0.3312988 1.8950001
0.89304918 -0.33007503 1.8880001
0.88698304 -0.32937568 1.8840001
0.88140327 -0.32885122 1.881
0.87537038 -0.32815191 1.8770001
0.86657041 -0.32640362 1.8670001
0.85735267 -0.3244805 1.8560001
0.84864354 -0.32273224 1.8460001
0.84318113 -0.32220775 1.8430001
0.83591092 -0.32098398 1.8360001
0 0 0
0 0 0
0 0 0
0 0 0
0 0 0
0.82211268 -0.32517985 1.8600001
0.81931114 -0.32570431 1.863
0.81518358 -0.32570431 1.863
0.81279755 -0.32640362 1.8670001
0.80996054 -0.32692811 1.8700001
0.80883396 -0.32815191 1.8770001
0.8046754 -0.32815191 1.8770001
0.8005169 -0.32815191 1.8770001
0.79508555 -0.32762742 1.8740001
0.79093367 -0.32762742 1.8740001
0.78510243 -0.32692811 1.8700001
0.77970654 -0.32640362 1.8670001
0.77557015 -0.32640362 1.8670001
0.77432615 -0.32762742 1.8740001
0.76853037 -0.32692811 1.8700001
0.76438737 -0.32692811 1.8700001
0.76187044 -0.32762742 1.8740001
0.75771862 -0.32762742 1.8740001
0.75195825 -0.32692811 1.8700001
0.74661553 -0.32640362 1.8670001
0.73969537 -0.32517985 1.8600001
0.73557454 -0.32517985 1.8600001
0.7314536 -0.32517985 1.8600001
0.72576863 -0.3244805 1.8560001
0.72165656 -0.3244805 1.8560001
0.71367854 -0.32273224 1.8460001
0.70843554 -0.32220775 1.8430001
0.70167702 -0.32098398 1.8360001
0.69380975 -0.31923568 1.8260001
0.68863094 -0.31871119 1.8230001
0.68571872 -0.31923568 1.8260001
0.6842863 -0.32045949 1.8330001
0.6839363 -0.32220775 1.8430001
0.6809597 -0.32273224 1.8460001
0.67943656 -0.32395604 1.853
0.67788237 -0.32517985 1.8600001
0.6748482 -0.32570431 1.863
0.66964066 -0.32517985 1.8600001
0.66301513 -0.32395604 1.853
0.65890974 -0.32395604 1.853
0.65833819 -0.32570431 1.863
0.65561527 -0.32640362 1.8670001
0.64903635 -0.32517985 1.8600001
0.6424883 -0.32395604 1.853
0.63941652 -0.3244805 1.8560001
0.63530451 -0.3244805 1.8560001
0.63357311 -0.32570431 1.863
0.62944555 -0.32570431 1.863
0.6266607 -0.32640362 1.8670001
0.62485832 -0.32762742 1.8740001
0.623025 -0.32885122 1.881
0.61984462 -0.32937568 1.8840001
0.61567062 -0.32937568 1.8840001
0.60922456 -0.32815191 1.8770001
0.60055298 -0.32570431 1.863
0.59418452 -0.3244805 1.8560001
0.58911872 -0.32395604 1.853
0.58090913 -0.32168326 1.84
0.57463807 -0.32045949 1.8330001
0.5696432 -0.31993499 1.83
0.56435251 -0.31923568 1.8260001
0.5615344 -0.31993499 1.83
0.55626142 -0.31923568 1.8260001
0.55221593 -0.31923568 1.8260001
0.54817039 -0.31923568 1.8260001
0.54710472 -0.32098398 1.8360001
0.54510742 -0.32220775 1.8430001
0.54307914 -0.32343155 1.8500001
0.53985441 -0.32395604 1.853
0.53777295 -0.32517985 1.8600001
0.53451276 -0.32570431 1.863
0.53038532 -0.32570431 1.863
0.52738768 -0.32640362 1.8670001
0.52521318 -0.32762742 1.8740001
0.52189541 -0.32815191 1.8770001
0.51773691 -0.32815191 1.8770001
0.51166302 -0.32692811 1.8700001
0.50752002 -0.32692811 1.8700001
0.50337702 -0.32692811 1.8700001
0.4965643 -0.32517985 1.8600001
0.48979592 -0.32343155 1.8500001
0.48307177 -0.32168326 1.84
0.47717297 -0.32045949 1.8330001
0.47233757 -0.31993499 1.83
0.46828321 -0.31993499 1.83
0.46422878 -0.31993499 1.83
0 0 0
0 0 0
0 0 0
0 0 0
0.44953656 -0.32395604 1.853
0.4471139 -0.32517985 1.8600001
0.44466022 -0.32640362 1.8670001
0.44123173 -0.32692811 1.8700001
0.43638748 -0.32640362 1.8670001
0.43294567 -0.32692811 1.8700001
0.42971987 -0.32762742 1.8740001
0.42556798 -0.32762742 1.8740001
0.4214161 -0.32762742 1.8740001
0.41882282 -0.32885122 1.881
0.41619858 -0.33007503 1.8880001
0.41201568 -0.33007503 1.8880001
0.40934485 -0.3312988 1.8950001
0.40364987 -0.33007503 1.8880001
0.39946696 -0.33007503 1.8880001
0.39444658 -0.32937568 1.8840001
0.3888225 -0.32815191 1.8770001
0.38322943 -0.32692811 1.8700001
0.37705919 -0.32517985 1.8600001
0.37093329 -0.32343155 1.8500001
0.36544654 -0.32220775 1.8430001
0.35999084 -0.32098398 1.8360001
0.35534155 -0.32045949 1.8330001
0.35070559 -0.31993499 1.83
0.34589347 -0.31923568 1.8260001
0.3412863 -0.31871119 1.8230001
0.33780241 -0.31923568 1.8260001
0.33448797 -0.31993499 1.83
0.33151698 -0.32098398 1.8360001
0.32744929 -0.32098398 1.8360001
0.32408613 -0.32168326 1.84
0.32174879 -0.32343155 1.8500001
0.31868029 -0.3244805 1.8560001
0.31524622 -0.32517985 1.8600001
0.30995443 -0.32395604 1.853
0.30535394 -0.32343155 1.8500001
0.30174372 -0.32395604 1.853
0.29715651 -0.32343155 1.8500001
0.29194891 -0.32220775 1.8430001
0.28630379 -0.32045949 1.8330001
0.28178078 -0.31993499 1.83
0.27924401 -0.32168326 1.84
0.27516747 -0.32168326 1.84
0.27109089 -0.32168326 1.84
0.26846552 -0.32343155 1.8500001
0.26522422 -0.3244805 1.8560001
0.26069015 -0.32395604 1.853
0.25658479 -0.32395604 1.853
0.2520707 -0.32343155 1.8500001
0 0 0
0.24387327 -0.32343155 1.8500001
0.23847847 -0.32168326 1.84
0.23351017 -0.32045949 1.8330001
0.22982465 -0.32098398 1.8360001
0 0 0
0.22217225 -0.32168326 1.84
0 0 0
0 0 0
0.21028489 -0.32220775 1.8430001
0.20620167 -0.32220775 1.8430001
0.20211847 -0.32220775 1.8430001
0.19835763 -0.32273224 1.8460001
0.19500445 -0.32395604 1.853
0 0 0
0 0 0
0.18101235 -0.32098398 1.8360001
0.17790841 -0.32273224 1.8460001
0.17259447 -0.32045949 1.8330001
0.16788982 -0.31923568 1.8260001
0.1635751 -0.31871119 1.8230001
0.15927367 -0.3181867 1.8200001
0.15549731 -0.31871119 1.8230001
0.15120918 -0.3181867 1.8200001
0.14741953 -0.31871119 1.8230001
0.14361659 -0.31923568 1.8260001
0.1401061 -0.32045949 1.8330001
0.13626771 -0.32098398 1.8360001
0.13292007 -0.32273224 1.8460001
0.12910938 -0.32343155 1.8500001
0.12568641 -0.32517985 1.8600001
0.12248054 -0.32762742 1.8740001
0.11877065 -0.32885122 1.881
0.11502975 -0.33007503 1.8880001
0.11084685 -0.33007503 1.8880001
0.10643797 -0.32937568 1.8840001
0.10210109 -0.32885122 1.881
0.096996531 -0.32570431 1.863
0.091523096 -0.32098398 1.8360001
0.086693265 -0.3181867 1.8200001
0.082661018 -0.3181867 1.8200001
0.078455962 -0.31748742 1.8160001
0.074186653 -0.31643844 1.8100001
0.070176564 -0.31643844 1.8100001
0.066385821 -0.31748742 1.8160001
0.062602818 -0.31871119 1.8230001
0.058788799 -0.31993499 1.83
0 0 0
0.051123101 -0.32273224 1.8460001
0.047033258 -0.32273224 1.8460001
0.042803828 -0.32168326 1.84
0 0 0
0 0 0
0 0 0
0 0 0
0 0 0
0 0 0
0 0 0
0 0 0
0 0 0
0 0 0
0 0 0
0 0 0
0 0 0
0 0 0
0 0 0
0 0 0
0 0 0
0 0 0
0 0 0
0 0 0
0 0 0
0 0 0
0 0 0
-0.054136209 -0.31643844 1.8100001
-0.058242675 -0.31696293 1.8130001
-0.062259413 -0.31696293 1.8130001
0 0 0
0 0 0
0 0 0
0 0 0
0 0 0
0 0 0
0 0 0
0 0 0
0 0 0
0 0 0
0 0 0
0 0 0
0 0 0
0 0 0
0 0 0
0 0 0
0 0 0
0 0 0
-0.14323995 -0.32762742 1.8740001
-0.14762779 -0.32815191 1.8770001
-0.15235238 -0.32937568 1.8840001
-0.15685876 -0.33007503 1.8880001
-0.16189463 -0.33182329 1.8980001
-0.16671227 -0.33304709 1.9050001
-0.17066365 -0.3325226 1.9020001
-0.17450979 -0.33182329 1.8980001
-0.17871486 -0.33182329 1.8980001
-0.1829199 -0.33182329 1.8980001
-0.18712497 -0.33182329 1.8980001
-0.1910276 -0.3312988 1.8950001
-0.19450486 -0.33007503 1.8880001
-0.19826679 -0.32937568 1.8840001
-0.20168866 -0.32815191 1.8770001
-0.20551819 -0.32762742 1.8740001
-0.20810372 -0.32517985 1.8600001
-0.21108359 -0.32343155 1.8500001
-0.21553123 -0.32395604 1.853
-0.21963659 -0.32395604 1.853
-0.22289672 -0.32273224 1.8460001
-0.22575697 -0.32098398 1.8360001
-0.23070088 -0.32220775 1.8430001
-0.23516627 -0.32273224 1.8460001
-0.23925611 -0.32273224 1.8460001
-0.24334596 -0.32273224 1.8460001
-0.24797198 -0.32343155 1.8500001
-0.25438702 -0.32640362 1.8670001
-0.26143125 -0.33007503 1.8880001
-0.26603621 -0.33059949 1.891
-0.27079737 -0.3312988 1.8950001
-0.27441528 -0.33059949 1.891
-0.27757353 -0.32937568 1.8840001
-0.28070074 -0.32815191 1.8770001
-0.28485927 -0.32815191 1.8770001
-0.287478 -0.32640362 1.8670001
-0.28989625 -0.3244805 1.8560001
-0.29464188 -0.32517985 1.8600001
-0.29988712 -0.32640362 1.8670001
-0.30451202 -0.32692811 1.8700001
-0.30931526 -0.32762742 1.8740001
-0.31396899 -0.32815191 1.8770001
-0.31931391 -0.32937568 1.8840001
-0.32228604 -0.32815191 1.8770001
-0.32279229 -0.3244805 1.8560001
-0.32461455 -0.32220775 1.8430001
-0.32869771 -0.32220775 1.8430001
-0.33278093 -0.32220775 1.8430001
-0.33741248 -0.32273224 1.8460001
-0.34150231 -0.32273224 1.8460001
-0.34634101 -0.32343155 1.8500001
-0.35233399 -0.32517985 1.8600001
-0.35837129 -0.32692811 1.8700001
-0.36387131 -0.32815191 1.8770001
-0.36881414 -0.32885122 1.881
-0.37298152 -0.32885122 1.881
-0.37775043 -0.32937568 1.8840001
-0.38334349 -0.33059949 1.891
-0.3889676 -0.33182329 1.8980001
-0.39400128 -0.3325226 1.9020001
-0.39821517 -0.3325226 1.9020001
-0.4024291 -0.3325226 1.9020001
-0.40578786 -0.33182329 1.8980001
-0.40783277 -0.33007503 1.8880001
-0.40896046 -0.32762742 1.8740001
-0.40914434 -0.3244805 1.8560001
-0.41036177 -0.32220775 1.8430001
-0.41377035 -0.32168326 1.84
-0.41784689 -0.32168326 1.84
-0.42329931 -0.32273224 1.8460001
-0.4290098 -0.32395604 1.853
-0.43545252 -0.32570431 1.863
-0.44052386 -0.32640362 1.8670001
-0.44632739 -0.32762742 1.8740001
-0.45047927 -0.32762742 1.8740001
-0.45535895 -0.32815191 1.8770001
-0.45951748 -0.32815191 1.8770001
-0.46293491 -0.32762742 1.8740001
-0.46608984 -0.32692811 1.8700001
-0.46947849 -0.32640362 1.8670001
-0.4726001 -0.32570431 1.863
-0.47340107 -0.32343155 1.8500001
-0.47569299 -0.32220775 1.8430001
-0.4797762 -0.32220775 1.8430001
-0.48464701 -0.32273224 1.8460001
-0.49059016 -0.32395604 1.853
-0.49549642 -0.3244805 1.8560001
-0.50068516 -0.32517985 1.8600001
-0.50670582 -0.32640362 1.8670001
-0.51166302 -0.32692811 1.8700001
-0.51580608 -0.32692811 1.8700001
-0.52189541 -0.32815191 1.8770001
-0.52717501 -0.32885122 1.881
-0.53416717 -0.33059949 1.891
-0.54148835 -0.3325226 1.9020001
-0.54455465 -0.33182329 1.8980001
-0.54875976 -0.33182329 1.8980001
0 0 0
0 0 0
0 0 0
0 0 0
-0.54937118 -0.31993499 1.83
0 0 0
-0.55747998 -0.31993499 1.83
-0.56337553 -0.32098398 1.8360001
-0.57269728 -0.32395604 1.853
-0.57898164 -0.32517985 1.8600001
-0.58404291 -0.32570431 1.863
0 0 0
0 0 0
0 0 0
-0.60635543 -0.32885122 1.881
-0.61052287 -0.32885122 1.881
0 0 0
0 0 0
-0.62401867 -0.32937568 1.8840001
-0.62819266 -0.32937568 1.8840001
-0.63001722 -0.32815191 1.8770001
-0.63181067 -0.32692811 1.8700001
-0.63357311 -0.32570431 1.863
-0.63770056 -0.32570431 1.863
-0.64320618 -0.32640362 1.8670001
-0.64838272 -0.32692811 1.8700001
-0.65252578 -0.32692811 1.8700001
-0.65807343 -0.32762742 1.8740001
-0.66328543 -0.32815191 1.8770001
-0.66993308 -0.32937568 1.8840001
-0.67410713 -0.32937568 1.8840001
-0.67972124 -0.33007503 1.8880001
-0.68390417 -0.33007503 1.8880001
-0.68662924 -0.32937568 1.8840001
-0.69080329 -0.32937568 1.8840001
-0.69497728 -0.32937568 1.8840001
-0.69803804 -0.32885122 1.881
-0.70332539 -0.32937568 1.8840001
-0.70637286 -0.32885122 1.881
-0.70789599 -0.32762742 1.8740001
-0.7093882 -0.32640362 1.8670001
-0.71199584 -0.32570431 1.863
-0.71612334 -0.32570431 1.863
-0.71909106 -0.32517985 1.8600001
-0.7204901 -0.32395604 1.853
-0.72342241 -0.32343155 1.8500001
-0.72870082 -0.32395604 1.853
-0.73676091 -0.32570431 1.863
-0.74247915 -0.32640362 1.8670001
-0.75061458 -0.32815191 1.8770001
-0.75919634 -0.33007503 1.8880001
-0.76337928 -0.33007503 1.8880001
-0.76756215 -0.33007503 1.8880001
-0.76724869 -0.32815191 1.8770001
-0.77017421 -0.32762742 1.8740001
-0.77267337 -0.32692811 1.8700001
-0.77266228 -0.32517985 1.8600001
-0.77260691 -0.32343155 1.8500001
-0.7750262 -0.32273224 1.8460001
-0.77911609 -0.32273224 1.8460001
-0.78490305 -0.32343155 1.8500001
-0.79028118 -0.32395604 1.853
-0.79867357 -0.32570431 1.863
-0.80452478 -0.32640362 1.8670001
-0.81169307 -0.32762742 1.8740001
-0.8141036 -0.32692811 1.8700001
-0.8182466 -0.32692811 1.8700001
-0.82107031 -0.32640362 1.8670001
-0.82034469 -0.3244805 1.8560001
-0.8200146 -0.32273224 1.8460001
-0.81964016 -0.32098398 1.8360001
-0.82236189 -0.32045949 1.8330001
-0.82642293 -0.32045949 1.8330001
-0.8318432 -0.32098398 1.8360001
-0.84046382 -0.32273224 1.8460001
-0.8509587 -0.32517985 1.8600001
-0.85967684 -0.32692811 1.8700001
-0.86890107 -0.32885122 1.881
-0.87631756 -0.33007503 1.8880001
-0.87723583 -0.32885122 1.881
-0.88140327 -0.32885122 1.881
-0.88557065 -0.32885122 1.881
-0.88973808 -0.32885122 1.881
-0.89200455 -0.32815191 1.8770001
-0.89282101 -0.32692811 1.8700001
-0.89552498 -0.32640362 1.8670001
-0.89966142 -0.32640362 1.8670001
-0.90186137 -0.32570431 1.863
-0.90598887 -0.32570431 1.863
0 0 0
0 0 0
0 0 0
-0.92447966 -0.32640362 1.8670001
-0.92861599 -0.32640362 1.8670001
-0.93275243 -0.32640362 1.8670001
-0.93688881 -0.32640362 1.8670001
-0.94253725 -0.32692811 1.8700001
-0.95022398 -0.32815191 1.8770001
-0.95641631 -0.32885122 1.881
-0.96415842 -0.33007503 1.8880001
-0.96988004 -0.33059949 1.891
-0.97406954 -0.33059949 1.891
-0.97825909 -0.33059949 1.891
-0.97881186 -0.32937568 1.8840001
-0.98298597 -0.32937568 1.8840001
-0.98715997 -0.32937568 1.8840001
-0.98975539 -0.32885122 1.881
-0.99392277 -0.32885122 1.881
-0.99809027 -0.32885122 1.881
0.99968213 -0.33354974 1.8840001
0.99762166 -0.33425793 1.8880001
0.99501729 -0.33478904 1.891
0.99082774 -0.33478904 1.891
0.98663825 -0.33478904 1.891
0.98452681 -0.33549723 1.8950001
0.98188037 -0.33602837 1.8980001
0 0 0
0.97193164 -0.33549723 1.8950001
0.96415842 -0.33425793 1.8880001
0.96150088 -0.33478904 1.891
0.95376766 -0.33354974 1.8840001
0.94606549 -0.33231044 1.8770001
0.93688881 -0.33054 1.8670001
0.92925525 -0.3293007 1.8600001
0.9251343 -0.3293007 1.8600001
0.91903275 -0.32859251 1.8560001
0.9134419 -0.3280614 1.853
0.9108088 -0.32859251 1.8560001
0.90865088 -0.3293007 1.8600001
0.91133827 -0.3317793 1.8740001
0.91057497 -0.3330186 1.881
0.90785325 -0.33354974 1.8840001
0.90703678 -0.33478904 1.891
0.90475708 -0.33549723 1.8950001
0.90055865 -0.33549723 1.8950001
0.89446819 -0.33478904 1.891
0.88698304 -0.33354974 1.8840001
0.88140327 -0.3330186 1.881
0.87537038 -0.33231044 1.8770001
0.86657041 -0.33054 1.8670001
0.85596687 -0.3280614 1.853
0.84726435 -0.32629097 1.8430001
0 0 0
0 0 0
0 0 0
0 0 0
0 0 0
0 0 0
0.82445669 -0.32859251 1.8560001
0.82343864 -0.32983181 1.863
0.82107031 -0.33054 1.8670001
0.81693387 -0.33054 1.8670001
0.8141036 -0.33107114 1.8700001
0.81169307 -0.3317793 1.8740001
0.80883396 -0.33231044 1.8770001
0.8046754 -0.33231044 1.8770001
0.8005169 -0.33231044 1.8770001
0.79508555 -0.3317793 1.8740001
0.79093367 -0.3317793 1.8740001
0.78384292 -0.33054 1.8670001
0.778036 -0.32983181 1.863
0.7739085 -0.32983181 1.863
0.77267337 -0.33107114 1.8700001
0.76853037 -0.33107114 1.8700001
0.76602238 -0.3317793 1.8740001
0.76309013 -0.33231044 1.8770001
0.75893164 -0.33231044 1.8770001
0.75477308 -0.33231044 1.8770001
0.74781525 -0.33107114 1.8700001
0.74247915 -0.33054 1.8670001
0.73676091 -0.32983181 1.863
0.7314536 -0.3293007 1.8600001
0.72576863 -0.32859251 1.8560001
0.7204901 -0.3280614 1.853
0.71367854 -0.3268221 1.8460001
0.7072823 -0.32575983 1.84
0.69938397 -0.32398939 1.83
0.69152999 -0.32221895 1.8200001
0.68749774 -0.32221895 1.8200001
0.68346548 -0.32221895 1.8200001
0.68167311 -0.32328123 1.8260001
0.68133861 -0.32505167 1.8360001
0.6787464 -0.32575983 1.84
0.67686993 -0.3268221 1.8460001
0.67533118 -0.3280614 1.853
0.67231256 -0.32859251 1.8560001
0.66712046 -0.3280614 1.853
0.66194177 -0.32753026 1.8500001
0.65784299 -0.32753026 1.8500001
0.65586454 -0.32859251 1.8560001
0.65175253 -0.32859251 1.8560001
0.64415109 -0.3268221 1.8460001
0.6400612 -0.3268221 1.8460001
0.63597143 -0.3268221 1.8460001
0.63188154 -0.3268221 1.8460001
0.62915206 -0.32753026 1.8500001
0.62606686 -0.3280614 1.853
0.62296849 -0.32859251 1.8560001
0.62119055 -0.32983181 1.863
0.61838794 -0.33054 1.8670001
0.61425155 -0.33054 1.8670001
0.60880804 -0.32983181 1.863
0.60143477 -0.3280614 1.853
0.59313875 -0.32575983 1.84
0.58682126 -0.32452053 1.8330001
0.58180636 -0.32398939 1.83
0.57554203 -0.32275009 1.8230001
0.56930864 -0.32151079 1.8160001
0.56528527 -0.32151079 1.8160001
0.56126189 -0.32151079 1.8160001
0.55723852 -0.32151079 1.8160001
0.55443364 -0.32221895 1.8200001
0.55040139 -0.32221895 1.8200001
0.54726976 -0.32275009 1.8230001
0.54531682 -0.32398939 1.83
0.54214966 -0.32452053 1.8330001
0.54014355 -0.32575983 1.84
0.53694099 -0.32629097 1.8430001
0.5337252 -0.3268221 1.8460001
0.530783 -0.32753026 1.8500001
0.52668428 -0.32753026 1.8500001
0.52343297 -0.3280614 1.853
0.51932764 -0.3280614 1.853
0.51438814 -0.32753026 1.8500001
0.50642776 -0.32505167 1.8360001
0 0 0
0 0 0
0.4996084 -0.32859251 1.8560001
0.49469548 -0.3280614 1.853
0.4887369 -0.3268221 1.8460001
0.48307177 -0.32575983 1.84
0.47795397 -0.32505167 1.8360001
0.4731119 -0.32452053 1.8330001
0.46905088 -0.32452053 1.8330001
0 0 0
0 0 0
0 0 0
0 0 0
0 0 0
0.44541237 -0.32505167 1.8360001
0.44230622 -0.32575983 1.84
0.44061136 -0.32753026 1.8500001
0.43651268 -0.32753026 1.8500001
0.43311515 -0.3280614 1.853
0.42970437 -0.32859251 1.8560001
0.42719749 -0.32983181 1.863
0.42465964 -0.33107114 1.8700001
0.42051661 -0.33107114 1.8700001
0.41793221 -0.33231044 1.8770001
0.41619858 -0.33425793 1.8880001
0 0 0
0 0 0
0.40429124 -0.33478904 1.891
0.40010169 -0.33478904 1.891
0.39591214 -0.33478904 1.891
0.38965109 -0.3330186 1.881
0.38404915 -0.3317793 1.8740001
0.37847823 -0.33054 1.8670001
0.37293833 -0.3293007 1.8600001
0.36604142 -0.3268221 1.8460001
0.35999084 -0.32505167 1.8360001
0.35534155 -0.32452053 1.8330001
0.35070559 -0.32398939 1.83
0.3453252 -0.32275009 1.8230001
0.3412863 -0.32275009 1.8230001
0.33780241 -0.32328123 1.8260001
0.33448797 -0.32398939 1.83
0.33223921 -0.32575983 1.84
0.32923278 -0.3268221 1.8460001
0.32584751 -0.32753026 1.8500001
0.32348797 -0.3293007 1.8600001
0.32056901 -0.33054 1.8670001
0.31575468 -0.32983181 1.863
0.30995443 -0.3280614 1.853
0.30535394 -0.32753026 1.8500001
0.30060384 -0.3268221 1.8460001
0.29555026 -0.32575983 1.84
0.29036483 -0.32452053 1.8330001
0.28583521 -0.32398939 1.83
0.28116488 -0.32328123 1.8260001
0.27863696 -0.32505167 1.8360001
0.27456927 -0.32505167 1.8360001
0.27050158 -0.32505167 1.8360001
0.26788506 -0.3268221 1.8460001
0.26479551 -0.3280614 1.853
0.26069015 -0.3280614 1.853
0.2556155 -0.3268221 1.8460001
0.25070813 -0.32575983 1.84
0.24663158 -0.32575983 1.84
0.24202773 -0.32505167 1.8360001
0.23718238 -0.32398939 1.83
0.23312798 -0.32398939 1.83
0.22944911 -0.32452053 1.8330001
0.22538808 -0.32452053 1.8330001
0.22168927 -0.32505167 1.8360001
0.21809569 -0.32575983 1.84
0.21436809 -0.32629097 1.8430001
0.20994258 -0.32575983 1.84
0.20586602 -0.32575983 1.84
0.20211847 -0.32629097 1.8430001
0.19835763 -0.3268221 1.8460001
0.19532016 -0.32859251 1.8560001
0.19120817 -0.32859251 1.8560001
0 0 0
0.18199825 -0.3268221 1.8460001
0.17829391 -0.32753026 1.8500001
0.17231199 -0.32398939 1.83
0.16733816 -0.32221895 1.8200001
0.16267781 -0.32097965 1.8130001
0.15839854 -0.32044852 1.8100001
0.15490024 -0.32151079 1.8160001
0.15037836 -0.32044852 1.8100001
0.14685346 -0.32151079 1.8160001
0.14314468 -0.32221895 1.8200001
0.13957106 -0.32328123 1.8260001
0.13626771 -0.32505167 1.8360001
0.1332081 -0.32753026 1.8500001
0.12931874 -0.3280614 1.853
0.12588912 -0.32983181 1.863
0.12267662 -0.33231044 1.8770001
0.11877065 -0.3330186 1.881
0.11478604 -0.33354974 1.8840001
0.110612 -0.33354974 1.8840001
0.10666395 -0.33425793 1.8880001
0.10226393 -0.33354974 1.8840001
0 0 0
0 0 0
0 0 0
0.082206838 -0.32044852 1.8100001
0.078196742 -0.32044852 1.8100001
0.074063689 -0.31991738 1.807
0.070060246 -0.31991738 1.807
0.066641711 -0.32275009 1.8230001
0.062843196 -0.32398939 1.83
0.059110049 -0.32575983 1.84
0.055212952 -0.3268221 1.8460001
0.05123388 -0.32753026 1.8500001
0.047135171 -0.32753026 1.8500001
0.042873617 -0.32629097 1.8430001
0.038643084 -0.32505167 1.8360001
0 0 0
0 0 0
0 0 0
0 0 0
0 0 0
0 0 0
0 0 0
0 0 0
0 0 0
0 0 0
0 0 0
-0.0099919913 -0.31938627 1.8040001
-0.01401205 -0.31991738 1.807
-0.018075312 -0.32097965 1.8130001
0 0 0
0 0 0
0 0 0
0 0 0
0 0 0
0 0 0
0 0 0
0 0 0
-0.054315668 -0.32151079 1.8160001
-0.058467548 -0.32221895 1.8200001
-0.062499795 -0.32221895 1.8200001
0 0 0
0 0 0
0 0 0
0 0 0
0 0 0
0 0 0
0 0 0
0 0 0
0 0 0
0 0 0
0 0 0
0 0 0
0 0 0
0 0 0
0 0 0
0 0 0
0 0 0
0 0 0
-0.14239916 -0.32983181 1.863
-0.14707723 -0.33107114 1.8700001
-0.15178631 -0.33231044 1.8770001
-0.15652642 -0.33354974 1.8840001
-0.16129754 -0.33478904 1.891
-0.16609968 -0.33602837 1.8980001
-0.17030475 -0.33602837 1.8980001
-0.17423396 -0.33549723 1.8950001
-0.17777325 -0.33425793 1.8880001
-0.18157065 -0.33354974 1.8840001
-0.18574469 -0.33354974 1.8840001
-0.18991873 -0.33354974 1.8840001
-0.19337162 -0.33231044 1.8770001
-0.19721442 -0.3317793 1.8740001
-0.2009365 -0.33107114 1.8700001
-0.20431183 -0.32983181 1.863
-0.20810372 -0.3293007 1.8600001
-0.21176817 -0.32859251 1.8560001
-0.21634544 -0.3293007 1.8600001
0 0 0
-0.22410418 -0.32859251 1.8560001
-0.22784731 -0.3280614 1.853
0 0 0
0 0 0
-0.24379238 -0.3330186 1.881
-0.24795978 -0.3330186 1.881
-0.25252929 -0.33354974 1.8840001
-0.25724834 -0.33425793 1.8880001
-0.26240054 -0.33549723 1.8950001
-0.26659894 -0.33549723 1.8950001
-0.27022573 -0.33478904 1.891
-0.27397996 -0.33425793 1.8880001
-0.27713153 -0.3330186 1.881
-0.2802521 -0.3317793 1.8740001
-0.28334165 -0.33054 1.8670001
-0.28640017 -0.3293007 1.8600001
-0.28942767 -0.3280614 1.853
-0.29400826 -0.32859251 1.8560001
-0.29924461 -0.32983181 1.863
-0.3040235 -0.33054 1.8670001
-0.30981043 -0.33231044 1.8770001
-0.31463805 -0.3330186 1.881
-0.31999186 -0.33425793 1.8880001
-0.32297283 -0.3330186 1.881
-0.32279229 -0.32859251 1.8560001
-0.32514295 -0.3268221 1.8460001
-0.32923278 -0.3268221 1.8460001
-0.33278093 -0.32629097 1.8430001
-0.33741248 -0.3268221 1.8460001
-0.3422423 -0.32753026 1.8500001
-0.34746426 -0.32859251 1.8560001
-0.35422826 -0.33107114 1.8700001
-0.36105427 -0.33354974 1.8840001
-0.36658531 -0.33478904 1.891
-0.37018666 -0.33425793 1.8880001
-0.37496442 -0.33478904 1.891
-0.37915397 -0.33478904 1.891
-0.38476256 -0.33602837 1.8980001
-0.39040217 -0.33726764 1.9050001
-0.39462271 -0.33726764 1.9050001
-0.39968073 -0.33797583 1.909
-0.40306386 -0.33726764 1.9050001
-0.40578786 -0.33602837 1.8980001
-0.40783277 -0.33425793 1.8880001
-0.40896046 -0.3317793 1.8740001
-0.40914434 -0.32859251 1.8560001
-0.40969378 -0.32575983 1.84
-0.41377035 -0.32575983 1.84
-0.41693854 -0.32505167 1.8360001
-0.42100623 -0.32505167 1.8360001
-0.42669457 -0.32629097 1.8430001
-0.43311515 -0.3280614 1.853
-0.43887219 -0.3293007 1.8600001
-0.44204035 -0.32859251 1.8560001
-0.44615236 -0.32859251 1.8560001
-0.45123479 -0.3293007 1.8600001
-0.45706934 -0.33054 1.8670001
-0.4594765 -0.3293007 1.8600001
-0.46260038 -0.32859251 1.8560001
-0.46771827 -0.3293007 1.8600001
-0.47082439 -0.32859251 1.8560001
-0.47416872 -0.3280614 1.853
-0.47749975 -0.32753026 1.8500001
-0.4815985 -0.32753026 1.8500001
-0.48648477 -0.3280614 1.853
-0.49138445 -0.32859251 1.8560001
-0.49549642 -0.32859251 1.8560001
-0.4996084 -0.32859251 1.8560001
-0.50480604 -0.3293007 1.8600001
-0.50974768 -0.32983181 1.863
-0.51497859 -0.33054 1.8670001
-0.51994908 -0.33107114 1.8700001
-0.52717501 -0.3330186 1.881
-0.53416717 -0.33478904 1.891
-0.54148835 -0.33673653 1.9020001
-0.54570228 -0.33673653 1.9020001
0 0 0
0 0 0
0 0 0
0 0 0
0 0 0
0 0 0
0 0 0
0 0 0
0 0 0
0 0 0
-0.57680267 -0.3280614 1.853
0 0 0
0 0 0
0 0 0
0 0 0
0 0 0
0 0 0
0 0 0
0 0 0
-0.62170017 -0.33231044 1.8770001
0 0 0
0 0 0
-0.6270805 -0.32859251 1.8560001
-0.63017225 -0.3280614 1.853
-0.63325077 -0.32753026 1.8500001
-0.63941652 -0.32859251 1.8560001
-0.64491546 -0.3293007 1.8600001
-0.65008312 -0.32983181 1.863
-0.65561527 -0.33054 1.8670001
-0.66222531 -0.3317793 1.8740001
-0.66993308 -0.33354974 1.8840001
-0.67553836 -0.33425793 1.8880001
-0.68080127 -0.33478904 1.891
-0.68643981 -0.33549723 1.8950001
-0.69063824 -0.33549723 1.8950001
-0.69483668 -0.33549723 1.8950001
-0.69903505 -0.33549723 1.8950001
-0.70323348 -0.33549723 1.8950001
-0.70743185 -0.33549723 1.8950001
-0.7090016 -0.33425793 1.8880001
-0.71167344 -0.33354974 1.8840001
-0.71204793 -0.3317793 1.8740001
-0.71352452 -0.33054 1.8670001
-0.71343261 -0.32859251 1.8560001
-0.71638477 -0.3280614 1.853
-0.71776831 -0.3268221 1.8460001
-0.72068506 -0.32629097 1.8430001
-0.72476828 -0.32629097 1.8430001
-0.73280621 -0.3280614 1.853
-0.74247915 -0.33054 1.8670001
-0.75341386 -0.33354974 1.8840001
-0.76040268 -0.33478904 1.891
-0.76337928 -0.33425793 1.8880001
-0.76756215 -0.33425793 1.8880001
-0.76888371 -0.3330186 1.881
-0.77017421 -0.3317793 1.8740001
-0.77267337 -0.33107114 1.8700001
-0.77100062 -0.32859251 1.8560001
-0.77260691 -0.32753026 1.8500001
-0.7750262 -0.3268221 1.8460001
-0.77911609 -0.3268221 1.8460001
-0.78490305 -0.32753026 1.8500001
-0.79156065 -0.32859251 1.8560001
-0.79867357 -0.32983181 1.863
-0.80581754 -0.33107114 1.8700001
-0.80866116 -0.33054 1.8670001
-0.81279755 -0.33054 1.8670001
-0.81518358 -0.32983181 1.863
-0.81623268 -0.32859251 1.8560001
-0.8159247 -0.3268221 1.8460001
-0.81734931 -0.32575983 1.84
-0.81696159 -0.32398939 1.83
-0.81922138 -0.32328123 1.8260001
-0.82326698 -0.32328123 1.8260001
-0.8318432 -0.32505167 1.8360001
-0.84046382 -0.3268221 1.8460001
-0.85233122 -0.32983181 1.863
-0.8615157 -0.3317793 1.8740001
-0.86890107 -0.3330186 1.881
-0.87446094 -0.33354974 1.8840001
-0.87723583 -0.3330186 1.881
-0.87952894 -0.33231044 1.8770001
-0.8836875 -0.33231044 1.8770001
-0.88784605 -0.33231044 1.8770001
-0.88867795 -0.33107114 1.8700001
-0.89138865 -0.33054 1.8670001
-0.89552498 -0.33054 1.8670001
-0.90110701 -0.33107114 1.8700001
-0.90379775 -0.33054 1.8670001
0 0 0
0 0 0
0 0 0
0 0 0
-0.92249894 -0.32983181 1.863
-0.92662644 -0.32983181 1.863
-0.92925525 -0.3293007 1.8600001
-0.93488151 -0.32983181 1.863
-0.94253725 -0.33107114 1.8700001
-0.95022398 -0.33231044 1.8770001
-0.95794165 -0.33354974 1.8840001
-0.96569043 -0.33478904 1.891
-0.97193164 -0.33549723 1.8950001
-0.97613001 -0.33549723 1.8950001
-0.98032844 -0.33549723 1.8950001
-0.98244858 -0.33478904 1.891
-0.98663825 -0.33478904 1.891
-0.99082774 -0.33478904 1.891
-0.99343878 -0.33425793 1.8880001
-0.99762166 -0.33425793 1.8880001
-0.99968213 -0.33354974 1.8840001
1.0018046 -0.33844084 1.8880001
1.0013205 -0.33969563 1.8950001
0.99712205 -0.33969563 1.8950001
0.99292368 -0.33969563 1.8950001
0.99237758 -0.34095043 1.9020001
0.99180031 -0.34220526 1.909
0.98757088 -0.34220526 1.909
0 0 0
0.97347033 -0.34023342 1.8980001
0.96569043 -0.33897859 1.891
0.96353477 -0.33969563 1.8950001
0.95224893 -0.33718601 1.881
0.94253725 -0.33521417 1.8700001
0.93488151 -0.33395934 1.863
0.92925525 -0.33342159 1.8600001
0.9251343 -0.33342159 1.8600001
0.91903275 -0.33270451 1.8560001
0.91196305 -0.33162898 1.8500001
0.90786439 -0.33162898 1.8500001
0.90669674 -0.33270451 1.8560001
0.91133827 -0.33593118 1.8740001
0.90863866 -0.33646896 1.8770001
0.90785325 -0.33772376 1.8840001
0.90703678 -0.33897859 1.891
0.90475708 -0.33969563 1.8950001
0.90055865 -0.33969563 1.8950001
0.89446819 -0.33897859 1.891
0.88698304 -0.33772376 1.8840001
0.88140327 -0.33718601 1.881
0.87397128 -0.33593118 1.8740001
0.86657041 -0.33467638 1.8670001
0.85458112 -0.33162898 1.8500001
0 0 0
0 0 0
0 0 0
0 0 0
0 0 0
0 0 0
0 0 0
0 0 0
0.82034469 -0.33270451 1.8560001
0.81799185 -0.33342159 1.8600001
0.81518358 -0.33395934 1.863
0.81105614 -0.33395934 1.863
0.80866116 -0.33467638 1.8670001
0.80581754 -0.33521417 1.8700001
0.80167449 -0.33521417 1.8700001
0.79923743 -0.33593118 1.8740001
0.79508555 -0.33593118 1.8740001
0.7879793 -0.33467638 1.8670001
0.7821635 -0.33395934 1.863
0.77678317 -0.33342159 1.8600001
0.77266228 -0.33342159 1.8600001
0.77143377 -0.33467638 1.8670001
0.76729739 -0.33467638 1.8670001
0.76602238 -0.33593118 1.8740001
0.76471627 -0.33718601 1.881
0.76054895 -0.33718601 1.881
0.75638151 -0.33718601 1.881
0.75221413 -0.33718601 1.881
0.74645597 -0.33646896 1.8770001
0.73952919 -0.33521417 1.8700001
0.7314536 -0.33342159 1.8600001
0.72576863 -0.33270451 1.8560001
0.71932364 -0.33162898 1.8500001
0.71367854 -0.33091193 1.8460001
0.7072823 -0.32983637 1.84
0.69938397 -0.32804379 1.83
0.69266987 -0.32678899 1.8230001
0.68749774 -0.32625121 1.8200001
0.68459207 -0.32678899 1.8230001
0.68167311 -0.32732677 1.8260001
0.68133861 -0.32911935 1.8360001
0.6787464 -0.32983637 1.84
0.67576987 -0.33037415 1.8430001
0.67423785 -0.33162898 1.8500001
0.67122585 -0.33216673 1.853
0.66604042 -0.33162898 1.8500001
0.65943706 -0.33037415 1.8430001
0.65535384 -0.33037415 1.8430001
0 0 0
0.65175253 -0.33270451 1.8560001
0.64659369 -0.33216673 1.853
0 0 0
0 0 0
0.63427758 -0.33216673 1.853
0.62915206 -0.33162898 1.8500001
0.62505335 -0.33162898 1.8500001
0.62095463 -0.33162898 1.8500001
0 0 0
0.61474448 -0.33270451 1.8560001
0.61063248 -0.33270451 1.8560001
0.60455978 -0.33162898 1.8500001
0.59591705 -0.32911935 1.8360001
0.58991516 -0.32804379 1.83
0.58586079 -0.32804379 1.83
0.5805347 -0.32732677 1.8260001
0.57459491 -0.32625121 1.8200001
0.56836814 -0.32499638 1.8130001
0.56435144 -0.32499638 1.8130001
0.56033468 -0.32499638 1.8130001
0.55631799 -0.32499638 1.8130001
0.55321509 -0.32553416 1.8160001
0.54919177 -0.32553416 1.8160001
0.54636914 -0.32625121 1.8200001
0.54412484 -0.32732677 1.8260001
0.54214966 -0.32858157 1.8330001
0.54014355 -0.32983637 1.84
0.53606695 -0.32983637 1.84
0.53199047 -0.32983637 1.84
0.52791387 -0.32983637 1.84
0.52383733 -0.32983637 1.84
0.52060819 -0.33037415 1.8430001
0.51568419 -0.32983637 1.84
0.51049548 -0.32911935 1.8360001
0.50642776 -0.32911935 1.8360001
0.50236005 -0.32911935 1.8360001
0 0 0
0 0 0
0 0 0
0.48794261 -0.33037415 1.8430001
0.48385939 -0.33037415 1.8430001
0.47795397 -0.32911935 1.8360001
0.4731119 -0.32858157 1.8330001
0.46981856 -0.32911935 1.8360001
0.46498981 -0.32858157 1.8330001
0 0 0
0 0 0
0 0 0
0 0 0
0 0 0
0 0 0
0.43965867 -0.33091193 1.8460001
0.43556884 -0.33091193 1.8460001
0.43311515 -0.33216673 1.853
0.43132502 -0.33395934 1.863
0.42811474 -0.33467638 1.8670001
0.42556798 -0.33593118 1.8740001
0.42209074 -0.33646896 1.8770001
0.41949081 -0.33772376 1.8840001
0.41685989 -0.33897859 1.891
0.41419795 -0.34023342 1.8980001
0 0 0
0.40514645 -0.33969563 1.8950001
0.40010169 -0.33897859 1.891
0.39591214 -0.33897859 1.891
0.39110115 -0.33844084 1.8880001
0.38548368 -0.33718601 1.881
0.37908641 -0.33521417 1.8700001
0.37293833 -0.33342159 1.8600001
0.36683458 -0.33162898 1.8500001
0.35999084 -0.32911935 1.8360001
0.35534155 -0.32858157 1.8330001
0.34993902 -0.32732677 1.8260001
0.3453252 -0.32678899 1.8230001
0.34072468 -0.32625121 1.8200001
0.3372474 -0.32678899 1.8230001
0.33375686 -0.32732677 1.8260001
0.33151698 -0.32911935 1.8360001
0.32816267 -0.32983637 1.84
0.32461455 -0.33037415 1.8430001
0.32174879 -0.33162898 1.8500001
0.31816515 -0.33216673 1.853
0.31405979 -0.33216673 1.853
0.30828172 -0.33037415 1.8430001
0.30304313 -0.32911935 1.8360001
0.29848692 -0.32858157 1.8330001
0.293944 -0.32804379 1.83
0.28878072 -0.32678899 1.8230001
0.28427327 -0.32625121 1.8200001
0.28024101 -0.32625121 1.8200001
0.27711934 -0.32732677 1.8260001
0.27307382 -0.32732677 1.8260001
0.26902828 -0.32732677 1.8260001
0.26643389 -0.32911935 1.8360001
0.26336649 -0.33037415 1.8430001
0.2592833 -0.33037415 1.8430001
0.25381541 -0.32858157 1.8330001
0.24934559 -0.32804379 1.83
0.24475503 -0.32732677 1.8260001
0.24031402 -0.32678899 1.8230001
0.23588631 -0.32625121 1.8200001
0.23185407 -0.32625121 1.8200001
0.22857288 -0.32732677 1.8260001
0.22501919 -0.32804379 1.83
0.22096479 -0.32804379 1.83
0.21726598 -0.32858157 1.8330001
0.21401913 -0.32983637 1.84
0.20994258 -0.32983637 1.84
0.20586602 -0.32983637 1.84
0.20178947 -0.32983637 1.84
0.19803527 -0.33037415 1.8430001
0.19468874 -0.33162898 1.8500001
0.19059004 -0.33162898 1.8500001
0.18548326 -0.32983637 1.84
0.18140671 -0.32983637 1.84
0.17733015 -0.32983637 1.84
0.17193536 -0.32732677 1.8260001
0.16733816 -0.32625121 1.8200001
0.162947 -0.32553416 1.8160001
0.15866108 -0.32499638 1.8130001
0.15490024 -0.32553416 1.8160001
0.15037836 -0.32445863 1.8100001
0.14661087 -0.32499638 1.8130001
0.14314468 -0.32625121 1.8200001
0.13934174 -0.32678899 1.8230001
0.13604505 -0.32858157 1.8330001
0.13292007 -0.33091193 1.8460001
0.12931874 -0.33216673 1.853
0.12568641 -0.33342159 1.8600001
0.12202304 -0.33467638 1.8670001
0.11832866 -0.33593118 1.8740001
0.11417678 -0.33593118 1.8740001
0.10979005 -0.33521417 1.8700001
0.10547754 -0.33467638 1.8670001
0.10074408 -0.33270451 1.8560001
0 0 0
0 0 0
0 0 0
0.082343094 -0.32499638 1.8130001
0.078196742 -0.32445863 1.8100001
0.074186653 -0.32445863 1.8100001
0.070292883 -0.32499638 1.8130001
0.066641711 -0.32678899 1.8230001
0.062705837 -0.32732677 1.8260001
0.058788799 -0.32804379 1.83
0.054824129 -0.32858157 1.8330001
0.050956938 -0.32983637 1.84
0.04677847 -0.32911935 1.8360001
0.042640988 -0.32858157 1.8330001
0 0 0
0 0 0
0 0 0
0 0 0
0 0 0
0 0 0
0 0 0
0 0 0
0 0 0
0 0 0
0 0 0
-0.0059819012 -0.32266602 1.8000001
-0.0099698361 -0.32266602 1.8000001
-0.013957771 -0.32266602 1.8000001
-0.018045403 -0.32445863 1.8100001
-0.022018937 -0.32392085 1.807
-0.026108785 -0.32499638 1.8130001
-0.030125521 -0.32499638 1.8130001
-0.034274079 -0.32625121 1.8200001
-0.038369466 -0.32678899 1.8230001
0 0 0
0 0 0
0 0 0
0 0 0
-0.058467548 -0.32625121 1.8200001
-0.062362432 -0.32553416 1.8160001
0 0 0
0 0 0
0 0 0
0 0 0
0 0 0
0 0 0
0 0 0
0 0 0
0 0 0
0 0 0
0 0 0
0 0 0
0 0 0
0 0 0
0 0 0
0 0 0
0 0 0
0 0 0
-0.14186411 -0.33270451 1.8560001
-0.14597611 -0.33270451 1.8560001
-0.15008812 -0.33270451 1.8560001
-0.1547817 -0.33395934 1.863
-0.15950629 -0.33521417 1.8700001
-0.16461195 -0.33718601 1.881
-0.16904853 -0.33772376 1.8840001
-0.17257898 -0.33646896 1.8770001
-0.17645502 -0.33593118 1.8740001
-0.18022141 -0.33521417 1.8700001
-0.18406865 -0.33467638 1.8670001
-0.18820503 -0.33467638 1.8670001
-0.1923414 -0.33467638 1.8670001
-0.19574112 -0.33342159 1.8600001
-0.19910979 -0.33216673 1.853
-0.20288616 -0.33162898 1.8500001
-0.20698488 -0.33162898 1.8500001
-0.21176817 -0.33270451 1.8560001
-0.21588017 -0.33270451 1.8560001
-0.22082189 -0.33395934 1.863
0 0 0
-0.2304295 -0.33593118 1.8740001
0 0 0
0 0 0
-0.2456069 -0.33969563 1.8950001
-0.24927801 -0.33897859 1.891
-0.25306544 -0.33844084 1.8880001
-0.25629455 -0.33718601 1.881
-0.26087737 -0.33772376 1.8840001
-0.26561415 -0.33844084 1.8880001
-0.26922545 -0.33772376 1.8840001
-0.27296412 -0.33718601 1.881
-0.27610019 -0.33593118 1.8740001
-0.27920526 -0.33467638 1.8670001
-0.28273457 -0.33395934 1.863
-0.28532231 -0.33216673 1.853
-0.28895909 -0.33162898 1.8500001
-0.29242414 -0.33091193 1.8460001
-0.29715651 -0.33162898 1.8500001
-0.30223227 -0.33270451 1.8560001
-0.30815989 -0.33467638 1.8670001
-0.31396899 -0.33646896 1.8770001
-0.31880546 -0.33718601 1.881
-0.32228604 -0.33646896 1.8770001
-0.32400969 -0.33395934 1.863
-0.32584751 -0.33162898 1.8500001
-0.32923278 -0.33091193 1.8460001
-0.33278093 -0.33037415 1.8430001
-0.33741248 -0.33091193 1.8460001
-0.3422423 -0.33162898 1.8500001
-0.34877476 -0.33395934 1.863
-0.35631195 -0.33718601 1.881
-0.36316234 -0.33969563 1.8950001
-0.36871776 -0.34095043 1.9020001
-0.37155917 -0.33969563 1.8950001
-0.37635246 -0.34023342 1.8980001
-0.38055751 -0.34023342 1.8980001
-0.38557342 -0.34095043 1.9020001
-0.39122188 -0.34220526 1.909
-0.39545131 -0.34220526 1.909
-0.39968073 -0.34220526 1.909
-0.40306386 -0.34148821 1.9050001
-0.40514645 -0.33969563 1.8950001
-0.40696871 -0.33772376 1.8840001
-0.40808755 -0.33521417 1.8700001
-0.40782169 -0.33162898 1.8500001
-0.40880316 -0.32911935 1.8360001
-0.41219622 -0.32858157 1.8330001
-0.41557598 -0.32804379 1.83
-0.41963041 -0.32804379 1.83
-0.426 -0.32983637 1.84
-0.43311515 -0.33216673 1.853
-0.43792838 -0.33270451 1.8560001
-0.44204035 -0.33270451 1.8560001
-0.44783503 -0.33395934 1.863
-0.45366076 -0.33521417 1.8700001
-0.45780379 -0.33521417 1.8700001
-0.46194682 -0.33521417 1.8700001
-0.46708679 -0.33593118 1.8740001
-0.4712387 -0.33593118 1.8740001
-0.47437587 -0.33521417 1.8700001
-0.47775126 -0.33467638 1.8670001
-0.48188758 -0.33467638 1.8670001
-0.48498267 -0.33395934 1.863
-0.49016035 -0.33467638 1.8670001
-0.49429673 -0.33467638 1.8670001
-0.49736518 -0.33395934 1.863
-0.50149268 -0.33395934 1.863
-0.50562024 -0.33395934 1.863
-0.5108422 -0.33467638 1.8670001
-0.51690942 -0.33593118 1.8740001
-0.52189541 -0.33646896 1.8770001
-0.5291369 -0.33844084 1.8880001
-0.53614455 -0.34023342 1.8980001
-0.54234248 -0.34148821 1.9050001
0 0 0
0 0 0
0 0 0
0 0 0
0 0 0
0 0 0
0 0 0
0 0 0
0 0 0
0 0 0
0 0 0
-0.56653041 -0.32625121 1.8200001
0 0 0
0 0 0
0 0 0
0 0 0
0 0 0
0 0 0
0 0 0
0 0 0
0 0 0
0 0 0
-0.62531805 -0.33395934 1.863
-0.62843198 -0.33342159 1.8600001
-0.63119251 -0.33270451 1.8560001
-0.63530451 -0.33270451 1.8560001
-0.64182812 -0.33395934 1.863
-0.64838272 -0.33521417 1.8700001
-0.65252578 -0.33521417 1.8700001
-0.65807343 -0.33593118 1.8740001
-0.66328543 -0.33646896 1.8770001
-0.67135549 -0.33844084 1.8880001
-0.67661178 -0.33897859 1.891
0 0 0
0 0 0
0 0 0
0 0 0
-0.70161724 -0.34095043 1.9020001
-0.70434678 -0.34023342 1.8980001
-0.70855182 -0.34023342 1.8980001
-0.71012813 -0.33897859 1.891
-0.70902926 -0.33646896 1.8770001
-0.71052808 -0.33521417 1.8700001
-0.71199584 -0.33395934 1.863
-0.71343261 -0.33270451 1.8560001
-0.71522498 -0.33162898 1.8500001
-0.71776831 -0.33091193 1.8460001
-0.7218582 -0.33091193 1.8460001
-0.72594804 -0.33091193 1.8460001
-0.73161983 -0.33162898 1.8500001
-0.74247915 -0.33467638 1.8670001
-0.75341386 -0.33772376 1.8840001
-0.75919634 -0.33844084 1.8880001
-0.7617619 -0.33772376 1.8840001
-0.76593596 -0.33772376 1.8840001
-0.76888371 -0.33718601 1.881
-0.77017421 -0.33593118 1.8740001
-0.77143377 -0.33467638 1.8670001
-0.77266228 -0.33342159 1.8600001
-0.7738598 -0.33216673 1.853
-0.77670562 -0.33162898 1.8500001
-0.78207046 -0.33216673 1.853
-0.78617579 -0.33216673 1.853
-0.79156065 -0.33270451 1.8560001
-0.79867357 -0.33395934 1.863
-0.80452478 -0.33467638 1.8670001
-0.80692858 -0.33395934 1.863
-0.80800867 -0.33270451 1.8560001
-0.80949533 -0.33162898 1.8500001
-0.80919617 -0.32983637 1.84
-0.81017876 -0.32858157 1.8330001
-0.81113034 -0.32732677 1.8260001
-0.81249732 -0.32625121 1.8200001
-0.81652951 -0.32625121 1.8200001
-0.82326698 -0.32732677 1.8260001
-0.83048397 -0.32858157 1.8330001
-0.84046382 -0.33091193 1.8460001
-0.84912866 -0.33270451 1.8560001
-0.85507965 -0.33342159 1.8600001
-0.86381984 -0.33521417 1.8700001
-0.87121189 -0.33646896 1.8770001
-0.87537038 -0.33646896 1.8770001
-0.87812322 -0.33593118 1.8740001
-0.8836875 -0.33646896 1.8770001
-0.88784605 -0.33646896 1.8770001
-0.89057881 -0.33593118 1.8740001
-0.89473075 -0.33593118 1.8740001
-0.89888263 -0.33593118 1.8740001
-0.90448016 -0.33646896 1.8770001
-0.90863866 -0.33646896 1.8770001
-0.91133827 -0.33593118 1.8740001
0 0 0
0 0 0
-0.92379391 -0.33593118 1.8740001
-0.92249894 -0.33395934 1.863
-0.9251343 -0.33342159 1.8600001
-0.92925525 -0.33342159 1.8600001
-0.93488151 -0.33395934 1.863
-0.94102514 -0.33467638 1.8670001
-0.9487052 -0.33593118 1.8740001
-0.95641631 -0.33718601 1.881
-0.96415842 -0.33844084 1.8880001
-0.96988004 -0.33897859 1.891
-0.97406954 -0.33897859 1.891
-0.97825909 -0.33897859 1.891
-0.98244858 -0.33897859 1.891
-0.98663825 -0.33897859 1.891
-0.99082774 -0.33897859 1.891
-0.99501729 -0.33897859 1.891
-1.0013205 -0.33969563 1.8950001
-1.0055189 -0.33969563 1.8950001
1.0055189 -0.34389403 1.8950001
1.0050192 -0.34516436 1.9020001
1.0008054 -0.34516436 1.9020001
0.99816334 -0.34570879 1.9050001
0.99811685 -0.34716058 1.9130001
0 0 0
0 0 0
0 0 0
0.97347033 -0.34443846 1.8980001
0.96415842 -0.34262371 1.8880001
0.95794165 -0.34189782 1.8840001
0.9487052 -0.34008306 1.8740001
0.93900901 -0.33808684 1.863
0.93136883 -0.33681652 1.8560001
0.92725676 -0.33681652 1.8560001
0.9251343 -0.33754244 1.8600001
0.91903275 -0.33681652 1.8560001
0.91196305 -0.33572769 1.8500001
0.90933657 -0.33627209 1.853
0.90669674 -0.33681652 1.8560001
0.90939307 -0.3393572 1.8700001
0.90863866 -0.34062749 1.8770001
0.90448016 -0.34062749 1.8770001
0.90367919 -0.34189782 1.8840001
0.90141499 -0.34262371 1.8880001
0.89723206 -0.34262371 1.8880001
0.89304918 -0.34262371 1.8880001
0.88557065 -0.34135339 1.881
0.87812322 -0.34008306 1.8740001
0.87210584 -0.3393572 1.8700001
0.86332136 -0.33754244 1.8600001
0.85273331 -0.3350018 1.8460001
0 0 0
0 0 0
0 0 0
0 0 0
0 0 0
0 0 0
0 0 0
0 0 0
0.81769276 -0.33572769 1.8500001
0.81491333 -0.33627209 1.853
0.81080794 -0.33627209 1.853
0.80670261 -0.33627209 1.853
0.80389667 -0.33681652 1.8560001
0.79978466 -0.33681652 1.8560001
0.79738748 -0.33754244 1.8600001
0.79625207 -0.33881277 1.8670001
0.79211563 -0.33881277 1.8670001
0.78629106 -0.33808684 1.863
0.7821635 -0.33808684 1.863
0.77678317 -0.33754244 1.8600001
0.77100062 -0.33681652 1.8560001
0.76854146 -0.33754244 1.8600001
0.76565343 -0.33808684 1.863
0.76316106 -0.33881277 1.8670001
0.76187044 -0.34008306 1.8740001
0.75893164 -0.34062749 1.8770001
0.75638151 -0.34135339 1.881
0.75061458 -0.34062749 1.8770001
0.74526292 -0.34008306 1.8740001
0.73834282 -0.33881277 1.8670001
0.7314536 -0.33754244 1.8600001
0.72459549 -0.33627209 1.853
0.71776831 -0.3350018 1.8460001
0.71251869 -0.33445737 1.8430001
0.70843554 -0.33445737 1.8430001
0.70053053 -0.33264261 1.8330001
0.69380975 -0.33137229 1.8260001
0.68863094 -0.33082786 1.8230001
0.68459207 -0.33082786 1.8230001
0.68167311 -0.33137229 1.8260001
0.68022531 -0.33264261 1.8330001
0.67727089 -0.33318704 1.8360001
0.67466986 -0.33391294 1.84
0.67278004 -0.3350018 1.8460001
0.67013919 -0.33572769 1.8500001
0.66460031 -0.3350018 1.8460001
0.65836364 -0.33391294 1.84
0.65286469 -0.33318704 1.8360001
0.65127069 -0.33445737 1.8430001
0.64718741 -0.33445737 1.8430001
0.64205742 -0.33391294 1.84
0 0 0
0 0 0
0.63188154 -0.3350018 1.8460001
0.62677145 -0.33445737 1.8430001
0.6216746 -0.33391294 1.84
0.61625552 -0.33318704 1.8360001
0 0 0
0.60812014 -0.33318704 1.8360001
0.60207838 -0.33209819 1.83
0.59671682 -0.33137229 1.8260001
0.59169757 -0.33082786 1.8230001
0.58540219 -0.32955757 1.8160001
0.58265936 -0.33028346 1.8200001
0.57862711 -0.33028346 1.8200001
0.57238489 -0.32901314 1.8130001
0.56742764 -0.32846871 1.8100001
0.56341761 -0.32846871 1.8100001
0.55940747 -0.32846871 1.8100001
0.55539739 -0.32846871 1.8100001
0.55230123 -0.32901314 1.8130001
0.54828447 -0.32901314 1.8130001
0.54636914 -0.33028346 1.8200001
0.54323089 -0.33082786 1.8230001
0.5400793 -0.33137229 1.8260001
0.53808868 -0.33264261 1.8330001
0.53490162 -0.33318704 1.8360001
0.52996659 -0.33264261 1.8330001
0.52504474 -0.33209819 1.83
0.52099037 -0.33209819 1.83
0.5177834 -0.33264261 1.8330001
0.51288158 -0.33209819 1.83
0.50882715 -0.33209819 1.83
0.5036695 -0.33137229 1.8260001
0 0 0
0 0 0
0.49610898 -0.33445737 1.8430001
0.49202579 -0.33445737 1.8430001
0.4887369 -0.3350018 1.8460001
0.48464701 -0.3350018 1.8460001
0.4797762 -0.33445737 1.8430001
0.47491866 -0.33391294 1.84
0.46981856 -0.33318704 1.8360001
0 0 0
0 0 0
0 0 0
0 0 0
0 0 0
0 0 0
0 0 0
0.43727699 -0.33318704 1.8360001
0.43250147 -0.33264261 1.8330001
0.43007657 -0.33391294 1.84
0.42738914 -0.3350018 1.8460001
0.42421654 -0.33572769 1.8500001
0.42148036 -0.33681652 1.8560001
0.42051661 -0.3393572 1.8700001
0.41882282 -0.34135339 1.881
0.41619858 -0.34262371 1.8880001
0.41267034 -0.34316814 1.891
0 0 0
0.40514645 -0.34389403 1.8950001
0.40094805 -0.34389403 1.8950001
0.39591214 -0.34316814 1.891
0.39110115 -0.34262371 1.8880001
0.38691828 -0.34262371 1.8880001
0.38050544 -0.34062749 1.8770001
0.37353984 -0.33808684 1.863
0.36742944 -0.33627209 1.853
0.36077511 -0.33391294 1.84
0.35592315 -0.33318704 1.8360001
0.35070559 -0.33209819 1.83
0.3447569 -0.33028346 1.8200001
0.34072468 -0.33028346 1.8200001
0.3372474 -0.33082786 1.8230001
0.33375686 -0.33137229 1.8260001
0.33151698 -0.33318704 1.8360001
0.32869771 -0.33445737 1.8430001
0.32514295 -0.3350018 1.8460001
0.32227051 -0.33627209 1.853
0.31936711 -0.33754244 1.8600001
0.31405979 -0.33627209 1.853
0.30828172 -0.33445737 1.8430001
0.30304313 -0.33318704 1.8360001
0.2979984 -0.33209819 1.83
0.29330149 -0.33137229 1.8260001
0.28830549 -0.33028346 1.8200001
0.28427327 -0.33028346 1.8200001
0.28070295 -0.33082786 1.8230001
0.27711934 -0.33137229 1.8260001
0.27307382 -0.33137229 1.8260001
0.26961759 -0.33209819 1.83
0.26701435 -0.33391294 1.84
0.26436684 -0.33572769 1.8500001
0.2592833 -0.33445737 1.8430001
0.2534 -0.33209819 1.83
0.24880058 -0.33137229 1.8260001
0.24435292 -0.33082786 1.8230001
0.23991854 -0.33028346 1.8200001
0.23536788 -0.32955757 1.8160001
0.23096232 -0.32901314 1.8130001
0.22782181 -0.33028346 1.8200001
0.22452736 -0.33137229 1.8260001
0.22048181 -0.33137229 1.8260001
0.21691039 -0.33209819 1.83
0.21355389 -0.33318704 1.8360001
0.20948619 -0.33318704 1.8360001
0.2054185 -0.33318704 1.8360001
0.20135081 -0.33318704 1.8360001
0.19771291 -0.33391294 1.84
0.19426778 -0.3350018 1.8460001
0.19017795 -0.3350018 1.8460001
0.18508004 -0.33318704 1.8360001
0.18101235 -0.33318704 1.8360001
0.17665553 -0.33264261 1.8330001
0.17165288 -0.33082786 1.8230001
0.16697039 -0.32955757 1.8160001
0.16240862 -0.32846871 1.8100001
0.158136 -0.32792428 1.807
0.15438844 -0.32846871 1.8100001
0.15012911 -0.32792428 1.807
0.14612566 -0.32792428 1.807
0.14259413 -0.32901314 1.8130001
0.1388067 -0.32955757 1.8160001
0.13552551 -0.33137229 1.8260001
0.13248804 -0.33391294 1.84
0.12883022 -0.3350018 1.8460001
0.1254161 -0.33681652 1.8560001
0.12202304 -0.33881277 1.8670001
0.11832866 -0.34008306 1.8740001
0.11393307 -0.3393572 1.8700001
0.10920294 -0.33754244 1.8600001
0.1046866 -0.33627209 1.853
0 0 0
0 0 0
0 0 0
0 0 0
0 0 0
0 0 0
0.074309617 -0.32901314 1.8130001
0.070409194 -0.32955757 1.8160001
0.066532038 -0.33028346 1.8200001
0.062602818 -0.33082786 1.8230001
0 0 0
0 0 0
0 0 0
0.046625599 -0.33209819 1.83
0 0 0
0 0 0
0 0 0
0 0 0
0 0 0
0 0 0
0 0 0
0 0 0
0 0 0
0 0 0
0 0 0
0 0 0
-0.0059719314 -0.32610953 1.7970001
-0.0099698361 -0.32665396 1.8000001
-0.013988788 -0.32737988 1.8040001
-0.018045403 -0.32846871 1.8100001
-0.02209205 -0.32901314 1.8130001
-0.026151987 -0.32955757 1.8160001
-0.030291686 -0.33082786 1.8230001
-0.034462396 -0.33209819 1.83
0 0 0
0 0 0
0 0 0
0 0 0
0 0 0
0 0 0
0 0 0
0 0 0
0 0 0
0 0 0
0 0 0
0 0 0
0 0 0
0 0 0
0 0 0
0 0 0
0 0 0
0 0 0
0 0 0
0 0 0
0 0 0
0 0 0
0 0 0
0 0 0
0 0 0
-0.1401061 -0.33264261 1.8330001
-0.14471769 -0.33391294 1.84
-0.14879425 -0.33391294 1.84
-0.15336931 -0.3350018 1.8460001
-0.15831213 -0.33681652 1.8560001
-0.16364932 -0.3393572 1.8700001
-0.16877934 -0.34135339 1.881
-0.17257898 -0.34062749 1.8770001
-0.17607838 -0.3393572 1.8700001
-0.17993228 -0.33881277 1.8670001
-0.18337852 -0.33754244 1.8600001
-0.18709616 -0.33681652 1.8560001
-0.1908991 -0.33627209 1.853
-0.19468874 -0.33572769 1.8500001
-0.19803527 -0.33445737 1.8430001
-0.20211847 -0.33445737 1.8430001
-0.20653734 -0.3350018 1.8460001
-0.21108359 -0.33572769 1.8500001
-0.21588017 -0.33681652 1.8560001
-0.22129601 -0.33881277 1.8670001
0 0 0
-0.23129022 -0.34135339 1.881
0 0 0
0 0 0
-0.24599573 -0.34443846 1.8980001
-0.24835525 -0.34189782 1.8840001
-0.25252929 -0.34189782 1.8840001
