# .PCD v0.7 - Point Cloud Data file format
VERSION 0.7
FIELDS x y z
SIZE 4 4 4
TYPE F F F
COUNT 1 1 1
WIDTH 1342
HEIGHT 1
VIEWPOINT 0 0 0 1 0 0 0
POINTS 1342
DATA ascii
-0.21566074 -0.12553795 0.73096985
-0.20539986 -0.12527193 0.73409081
-0.19541273 -0.1251134 0.73424995
-0.18518646 -0.12551269 0.73320591
-0.17599593 -0.12464269 0.73609674
-0.16692996 -0.1243772 0.73149997
-0.15381177 -0.12243572 0.73122215
-0.1452259 -0.12269206 0.73176932
-0.13448776 -0.12519923 0.73148596
-0.1247659 -0.12543318 0.73136139
-0.11570967 -0.124477 0.7317189
-0.10711157 -0.12395724 0.73038459
-0.097848393 -0.12196369 0.73000002
0.20406371 -0.12132099 0.73100001
0.21929815 -0.12690198 0.73049998
0.22157407 -0.12519833 0.73000002
0.23730105 -0.12431046 0.73166674
0.24240978 -0.12303158 0.73219997
0.26119861 -0.12277236 0.73000002
0.28222388 -0.12115502 0.73000002
0.31643915 -0.12207044 0.73323536
0.3251611 -0.12224951 0.73350006
0.33529836 -0.12175363 0.73247057
0.3458001 -0.1245629 0.73438698
0.3547169 -0.12583758 0.73344105
0.36469734 -0.12507598 0.73343754
0.37475255 -0.12549038 0.73330545
0.3848474 -0.12573159 0.73489469
0.39035714 -0.12372464 0.73566675
-0.3840546 -0.11493975 0.73550004
-0.37535748 -0.11457594 0.73532265
-0.36570862 -0.11314134 0.73344004
-0.3548862 -0.11280412 0.73467869
-0.34623873 -0.11128076 0.73600006
-0.33975872 -0.11094552 0.73200005
-0.32325456 -0.113754 0.73181254
-0.31429356 -0.11466022 0.73237789
-0.30470392 -0.1149362 0.73451293
-0.29559115 -0.11390647 0.73415387
-0.28647259 -0.11274152 0.73225003
-0.27768284 -0.1110374 0.73800009
-0.26261821 -0.11093301 0.73550004
-0.25356016 -0.11340743 0.73500001
-0.24522769 -0.11500381 0.73620003
-0.23525687 -0.11521327 0.73732448
-0.22521581 -0.11543865 0.73558158
-0.21559718 -0.11482166 0.73342431
-0.20494224 -0.11455438 0.73289752
-0.19516957 -0.11473431 0.73451346
-0.18504107 -0.11497649 0.7323904
-0.17577197 -0.11469653 0.73541027
-0.16523857 -0.11527216 0.73164099
-0.15508479 -0.11515647 0.73302239
-0.14495301 -0.11493925 0.7350834
-0.13495675 -0.11661972 0.73065227
-0.12414817 -0.11769471 0.7306
-0.11533455 -0.11796732 0.73100001
-0.10512638 -0.11549439 0.73000002
-0.098225474 -0.11474723 0.73039997
0.10684496 -0.11204933 0.73180002
0.11325179 -0.11299001 0.73100001
0.12408259 -0.11245221 0.73019999
0.13019498 -0.11145106 0.73000002
0.15668336 -0.11204106 0.73033333
0.16298689 -0.11175641 0.73200005
0.19737528 -0.11235622 0.73122221
0.2038867 -0.11501983 0.73151529
0.21745043 -0.11361412 0.7322942
0.22386828 -0.11350521 0.73133326
0.23540029 -0.11512052 0.73275
0.24473898 -0.1171447 0.73400009
0.26687354 -0.11439839 0.7353158
0.27540904 -0.11427641 0.73470008
0.28415126 -0.11490843 0.7335251
0.29584602 -0.11249202 0.73681825
0.30166695 -0.11359175 0.73866659
0.31762931 -0.11474793 0.73620003
0.32507607 -0.11458518 0.73482364
0.33517003 -0.11498919 0.73494726
0.34423542 -0.11565425 0.73325723
0.35436425 -0.11727764 0.73236859
0.36573589 -0.11527738 0.73629743
0.37357944 -0.11319929 0.73612499
0.3838523 -0.11340024 0.73768419
-0.39114547 -0.10417488 0.73766667
-0.38501358 -0.1053017 0.73720515
-0.37481272 -0.1054859 0.73742867
-0.36497152 -0.10860877 0.73816663
-0.35469484 -0.10607596 0.73686677
-0.34524369 -0.10653098 0.73638898
-0.33616367 -0.10533144 0.73250008
-0.32374397 -0.10423058 0.73279428
-0.31502724 -0.10503937 0.73452777
-0.3050662 -0.10476872 0.73330307
-0.29513648 -0.10458121 0.73257905
-0.2850945 -0.10534924 0.7314502
-0.27568108 -0.10448076 0.73500007
-0.26608011 -0.10635292 0.73624998
-0.25705117 -0.10136423 0.73900002
-0.24350707 -0.10753261 0.73800004
-0.23475765 -0.10631049 0.7380358
-0.22501034 -0.10522933 0.73673528
-0.21557775 -0.10529735 0.73818433
-0.20423461 -0.10760755 0.73766673
-0.19500096 -0.10534579 0.73596972
-0.18503925 -0.10447402 0.73369437
-0.17505857 -0.10506193 0.73553652
-0.1650496 -0.10538454 0.73593944
-0.15610053 -0.10622023 0.73692322
-0.14502591 -0.10533891 0.73661125
-0.13482216 -0.10428052 0.73211777
-0.12472314 -0.10284571 0.73091996
-0.11530699 -0.10169987 0.73200011
-0.10455771 -0.10415167 0.7324481
-0.098729916 -0.10474873 0.73100001
0.090868406 -0.10955057 0.73900002
0.1084953 -0.10462244 0.73200005
0.11511853 -0.10301683 0.73277283
0.12561142 -0.10475284 0.73379415
0.13082224 -0.10354085 0.73125005
0.14636827 -0.10012975 0.73000002
0.15697403 -0.1041361 0.73088002
0.16445948 -0.10519713 0.73217654
0.17703247 -0.10131561 0.73357147
0.1850426 -0.1034024 0.73150021
0.19485283 -0.10472281 0.73248655
0.2027614 -0.10582633 0.73231584
0.21671142 -0.10485714 0.73438466
0.22540799 -0.10552339 0.73355561
0.23468286 -0.1048715 0.73196983
0.24499573 -0.10458919 0.73461759
0.25417134 -0.10403185 0.7356801
0.26719576 -0.10705927 0.73875004
0.27380556 -0.10661899 0.73814297
0.28470129 -0.10904656 0.73560005
0.29733795 -0.10566628 0.73700011
0.30481383 -0.10350081 0.73670846
0.31618604 -0.1049337 0.73672986
0.32497892 -0.10491782 0.73524994
0.3351886 -0.10516036 0.73774302
0.34466854 -0.10505734 0.73720604
0.35583782 -0.10202169 0.73700005
0.36504173 -0.10500538 0.73481822
0.37529933 -0.10642546 0.73853338
0.38541779 -0.10487824 0.73771447
0.39113393 -0.10513566 0.73757142
-0.39085239 -0.096141405 0.73660004
-0.38584185 -0.095086068 0.73745716
-0.37453896 -0.095267452 0.73827285
-0.36514613 -0.094967134 0.73835737
-0.35612425 -0.094344571 0.73536372
-0.33520669 -0.099645995 0.7384001
-0.32645673 -0.098854579 0.73859996
-0.31304067 -0.099018082 0.73860008
-0.30433449 -0.09635362 0.73600006
-0.29503039 -0.095280103 0.73497379
-0.28568849 -0.095859304 0.73573357
-0.27590758 -0.099243179 0.73811114
-0.25434366 -0.095018081 0.73774081
-0.2491377 -0.094815157 0.73900002
-0.23367463 -0.093177885 0.73899996
-0.22309944 -0.098881342 0.73879993
-0.21459951 -0.097969234 0.73877788
-0.2005654 -0.098089695 0.73900002
-0.19427194 -0.096579641 0.73766667
-0.18601757 -0.099409103 0.73866671
-0.17511018 -0.099681981 0.73866671
-0.16374657 -0.095963292 0.73795658
-0.15613399 -0.096099846 0.73766679
-0.14314122 -0.097597428 0.73837501
-0.1347855 -0.095691398 0.73480642
-0.12481234 -0.094946608 0.73500007
-0.11444987 -0.095422901 0.73605263
-0.10458595 -0.09529046 0.73785728
-0.098585613 -0.095178455 0.73550004
0.051015649 -0.097027823 0.73100001
0.088748157 -0.094301946 0.73500001
0.095056117 -0.093322955 0.73523808
0.10626765 -0.093454599 0.73285007
0.11456524 -0.095712736 0.73424995
0.12492811 -0.095383979 0.7338751
0.1349799 -0.095092632 0.73241389
0.1449568 -0.094779156 0.73391187
0.15390107 -0.095195882 0.73383886
0.17534058 -0.095004112 0.73251438
0.18345074 -0.095127285 0.73195857
0.19568978 -0.098375708 0.73300004
0.20064406 -0.098151773 0.73133343
0.21868253 -0.093938008 0.73525006
0.22480358 -0.095798187 0.73396879
0.23522291 -0.094939552 0.7338621
0.24469225 -0.095355712 0.73594284
0.25428152 -0.095321447 0.73605722
0.26114434 -0.098908328 0.73900002
0.27467006 -0.099045515 0.7385
0.28570336 -0.098089695 0.73900002
0.29856068 -0.098884009 0.73760003
0.30463874 -0.097436912 0.73683339
0.31439975 -0.099062383 0.73862499
0.32566652 -0.097074628 0.73804182
0.33555272 -0.095851272 0.73762864
0.3420004 -0.095834605 0.73741668
0.35938045 -0.096998177 0.73900002
0.3644948 -0.096557952 0.7378422
0.37656629 -0.09608791 0.73800015
0.38475835 -0.095124029 0.73524332
0.39026868 -0.096812025 0.73549998
-0.39073715 -0.085736804 0.73700011
-0.38712341 -0.088320665 0.73750007
-0.37411585 -0.089903347 0.73900002
-0.36358368 -0.088500254 0.73866671
-0.35428774 -0.085309669 0.73615152
-0.34935766 -0.082826011 0.73720002
-0.31681147 -0.084991544 0.73900002
-0.30064484 -0.087798156 0.7385
-0.29467687 -0.085041381 0.73862875
-0.28690568 -0.085831858 0.7381053
-0.25341818 -0.088679448 0.73699999
-0.24902506 -0.088772021 0.73866671
-0.23411208 -0.08765091 0.73788244
-0.18419272 -0.08662881 0.73900002
-0.16236165 -0.086181328 0.73800004
-0.15810764 -0.08722087 0.73825002
-0.12450503 -0.086979136 0.73888886
-0.11385647 -0.087432317 0.73790485
-0.10481407 -0.086346395 0.73662072
-0.098706253 -0.086320482 0.73640001
0.037518617 -0.083287962 0.73358339
0.040085942 -0.088207468 0.7385
0.059760302 -0.080079742 0.73900002
0.06303484 -0.083354279 0.73900002
0.076990947 -0.080920674 0.73550004
0.083675735 -0.083804406 0.73333335
0.094938807 -0.086889438 0.73811114
0.10431536 -0.088314943 0.73760003
0.11498573 -0.086076424 0.73809105
0.12675904 -0.08535777 0.73569232
0.13482393 -0.085768342 0.73428112
0.1440742 -0.088569432 0.73781818
0.15457509 -0.088999555 0.73829997
0.16782004 -0.082535639 0.73900002
0.17573684 -0.08644934 0.73600006
0.1818874 -0.08505787 0.73343754
0.1954799 -0.081776179 0.73220003
0.20596351 -0.083108127 0.73522216
0.21541093 -0.083744533 0.73331827
0.22523011 -0.084004335 0.73192871
0.23404419 -0.085121356 0.73435295
0.24582404 -0.08848986 0.73590922
0.25411516 -0.088097975 0.73760009
0.29716423 -0.080079742 0.73900002
0.30493075 -0.084057905 0.73800004
0.31189966 -0.084991544 0.73900002
0.38834819 -0.089054935 0.73650002
0.39092058 -0.086450756 0.73750007
-0.3626343 -0.075508267 0.73806667
-0.35584909 -0.077124037 0.73685724
-0.30043879 -0.075167932 0.73900002
-0.29716673 -0.077775419 0.7385
-0.28324747 -0.077623837 0.73900002
-0.12306801 -0.077350952 0.73899996
0.036884874 -0.076484911 0.73411769
0.040058799 -0.075066216 0.73800009
0.077086285 -0.076393694 0.73855567
0.085279524 -0.076834366 0.7367084
0.092248902 -0.076588787 0.73693335
0.11788972 -0.076172605 0.73587513
0.12708881 -0.078045249 0.73742861
0.13494214 -0.075987905 0.73727787
0.14203306 -0.074758612 0.73900002
0.15542725 -0.07399483 0.73750001
0.1647978 -0.07596156 0.7387501
0.17109457 -0.078442469 0.73900002
0.18612322 -0.075391196 0.733706
0.1951295 -0.076515682 0.73495835
0.20496604 -0.076393031 0.73553133
0.2153044 -0.076513909 0.73620003
0.2248399 -0.076426104 0.73539996
0.23458153 -0.07611414 0.73762506
0.24231574 -0.073530659 0.73900002
-0.35300156 -0.29277164 0.74157143
-0.34491351 -0.29302707 0.74133319
-0.33505833 -0.29302689 0.74133319
-0.32425398 -0.29254964 0.74039119
-0.31429666 -0.29316422 0.74078566
-0.3061091 -0.29273006 0.74127787
-0.29586443 -0.2928459 0.74087501
-0.28532806 -0.29331082 0.74072737
-0.25115186 -0.29227158 0.74011105
-0.23486498 -0.29199645 0.74080008
-0.22476402 -0.29291508 0.74105
-0.21754721 -0.29162386 0.74037504
-0.1832142 -0.29329136 0.74166662
-0.17800419 -0.29379213 0.74050003
-0.16055174 -0.2937851 0.74325001
-0.15606704 -0.29285181 0.74361539
-0.14957634 -0.290741 0.74600005
-0.11628682 -0.29281431 0.74566674
-0.10507432 -0.29125375 0.74100006
-0.095034689 -0.290741 0.74600005
-0.071235865 -0.29556549 0.74775004
-0.063261457 -0.29239538 0.74571431
-0.054208625 -0.2930786 0.74145836
-0.044283926 -0.29341814 0.74457699
-0.035278201 -0.29324853 0.74331999
-0.024949932 -0.29401726 0.74149996
-0.014446188 -0.29366279 0.74204761
-0.0047507468 -0.2934339 0.74208701
0.0041934527 -0.29370314 0.74184209
0.016312076 -0.29394549 0.74157149
0.023621546 -0.29410833 0.74257147
0.034538161 -0.29344836 0.74238884
0.04504355 -0.29323915 0.74138463
0.05438501 -0.29295266 0.74155998
0.064549439 -0.29371762 0.74490333
0.074547902 -0.29338107 0.74390024
0.08582484 -0.29358858 0.74406242
0.095359907 -0.2937063 0.74586225
0.10503098 -0.29438978 0.74485195
0.11538724 -0.29350495 0.74295992
0.12563978 -0.29336196 0.74488902
0.13477586 -0.29420295 0.74640006
0.14421484 -0.2957812 0.74839127
0.15534754 -0.29426822 0.74683875
0.16434304 -0.29424611 0.74486965
0.17703137 -0.29360381 0.74728578
0.18442684 -0.29383284 0.74485177
0.1965754 -0.29392049 0.74206662
0.20532551 -0.29348639 0.74223989
0.21510927 -0.29408291 0.74400014
0.22485614 -0.29394671 0.74410725
0.23495083 -0.29370183 0.74527603
0.24492516 -0.29386777 0.74541962
0.25481561 -0.29329503 0.74396777
0.26525462 -0.2933816 0.74403459
0.2709665 -0.29090071 0.74500006
-0.37530699 -0.28091842 0.74625003
-0.36196044 -0.28278238 0.74160004
-0.35352898 -0.28361109 0.74033326
-0.34561849 -0.28578314 0.74078268
-0.33401072 -0.28564388 0.74069226
-0.32795534 -0.28581655 0.74063647
-0.3131682 -0.28479213 0.74456531
-0.30519161 -0.28571454 0.74407417
-0.29779077 -0.28790924 0.74114293
-0.2838493 -0.28419352 0.741
-0.27467236 -0.28241375 0.74214995
-0.26887539 -0.28184465 0.74000001
-0.25329128 -0.28313392 0.74039125
-0.24496561 -0.28412202 0.74034595
-0.23560241 -0.28493565 0.74076462
-0.22436984 -0.28619993 0.74161112
-0.21665141 -0.28699908 0.74121433
-0.19783108 -0.2845771 0.74000001
-0.18585309 -0.28566638 0.74650007
-0.16071375 -0.28996152 0.74400002
-0.15617946 -0.28945717 0.74439996
-0.14739239 -0.28966948 0.74750006
-0.13377415 -0.28374207 0.74128568
-0.12483556 -0.28178146 0.74308342
-0.11577043 -0.28503606 0.7460416
-0.10533777 -0.2833325 0.74683338
-0.071510315 -0.28096247 0.74200004
-0.062754974 -0.28552952 0.74482358
-0.054531723 -0.28456429 0.74305004
-0.044627152 -0.28504348 0.74611115
-0.034758594 -0.28535825 0.74705547
-0.024781333 -0.28517222 0.74720573
-0.014637541 -0.28457072 0.74577421
-0.0048880279 -0.28475365 0.74444193
0.0043894127 -0.28518346 0.74666661
0.014743282 -0.28551218 0.74790001
0.024930092 -0.28405634 0.74675006
0.034801491 -0.28492823 0.74515796
0.044280723 -0.28667256 0.74490011
0.0543986 -0.28682578 0.74443483
0.065077275 -0.28571662 0.74718755
0.074536368 -0.2850188 0.74656403
0.084955342 -0.28521043 0.74582624
0.095045142 -0.28545716 0.74704862
0.10527316 -0.28496587 0.74420011
0.115864 -0.28592533 0.74530566
0.12514579 -0.28563446 0.74687105
0.13576601 -0.28565884 0.74758816
0.14565431 -0.28457865 0.74796969
0.1554516 -0.28512681 0.74644446
0.16507672 -0.28476864 0.74641943
0.17556739 -0.28489387 0.74688572
0.18457034 -0.28463992 0.74697143
0.19590785 -0.28324932 0.74307144
0.20461215 -0.28497463 0.74302274
0.21526845 -0.2848261 0.7438001
0.22462052 -0.28497645 0.74346673
0.23517545 -0.28524259 0.7471621
0.24508256 -0.28528118 0.74802554
0.25492698 -0.28521276 0.74546361
0.26507834 -0.28482935 0.74682361
0.27126715 -0.28517494 0.74658346
-0.38313085 -0.27292579 0.74700004
-0.37467417 -0.27581471 0.74638468
-0.36040568 -0.27448714 0.74450004
-0.3548345 -0.27353442 0.74166673
-0.34422898 -0.27494079 0.74163151
-0.33408475 -0.27426478 0.742737
-0.32794371 -0.27477559 0.74655557
-0.31575751 -0.27926227 0.74814284
-0.30466279 -0.27491295 0.74790913
-0.29488385 -0.27251312 0.74643755
-0.28567493 -0.27395335 0.74533337
-0.27243462 -0.279695 0.74300003
-0.2628248 -0.27279782 0.74066669
-0.25477892 -0.27471027 0.74174356
-0.24605659 -0.27738231 0.7420001
-0.2331398 -0.2766245 0.74521434
-0.22639434 -0.2750648 0.7470001
-0.2055506 -0.27337641 0.74150014
-0.19437896 -0.27204257 0.74811119
-0.1847802 -0.27301314 0.74799997
-0.17897849 -0.27660558 0.74800003
-0.16260765 -0.2715129 0.74766666
-0.1597068 -0.27292579 0.74700004
-0.13142404 -0.27830839 0.74150002
-0.12269887 -0.27577883 0.74646163
-0.11522036 -0.27548644 0.74692303
-0.10536877 -0.27628818 0.74671429
-0.073520951 -0.27282387 0.74244994
-0.064854495 -0.27393454 0.74627268
-0.054244801 -0.27525881 0.74639398
-0.044518277 -0.27524218 0.74622869
-0.034737863 -0.27526674 0.74661106
-0.024666628 -0.27530751 0.74755239
-0.01495826 -0.27515268 0.74672967
-0.0052235187 -0.27443662 0.74817389
0.0049644243 -0.27544907 0.74711108
0.014406032 -0.27455184 0.74796158
0.024616275 -0.2758562 0.74799985
0.034503032 -0.27658916 0.74795991
0.040655881 -0.27780509 0.74900001
0.067055456 -0.27423677 0.74864286
0.074155122 -0.2756907 0.7484687
0.085717797 -0.27582619 0.74814284
0.093845181 -0.27635822 0.74793315
0.10466293 -0.27599409 0.74710006
0.11595153 -0.27552086 0.74765384
0.12416002 -0.27497846 0.7480883
0.13837689 -0.27991998 0.74800003
0.1437628 -0.27991998 0.74800003
0.15454459 -0.27482897 0.7460717
0.16464157 -0.27620184 0.74739283
0.17457257 -0.27550516 0.74858624
0.18643273 -0.2782613 0.74800003
0.19466645 -0.27514625 0.74526662
0.20461726 -0.27542096 0.74608582
0.21540318 -0.27532831 0.74773675
0.22458136 -0.27537397 0.74535024
0.23467603 -0.27503935 0.74631435
0.24504569 -0.27490035 0.74663639
0.2548216 -0.27582762 0.74766654
0.26509431 -0.27517176 0.74861103
0.27214551 -0.2711674 0.74900001
-0.35358205 -0.26708928 0.74000001
-0.34232083 -0.26588935 0.74153334
-0.33653867 -0.26703629 0.7437408
-0.32972908 -0.26760212 0.74600005
-0.31431887 -0.2608473 0.74822229
-0.30475631 -0.26209781 0.74853337
-0.29478586 -0.26834425 0.74750006
-0.28569072 -0.26763329 0.74840003
-0.27795181 -0.26344475 0.74750012
-0.26161402 -0.26146644 0.74500006
-0.25417531 -0.26437685 0.74458081
-0.24301679 -0.26121625 0.74800009
-0.2364129 -0.26497471 0.74849999
-0.22540505 -0.26314685 0.74900001
-0.20423304 -0.26528743 0.7481429
-0.19446294 -0.26612842 0.74770361
-0.18750834 -0.26544857 0.7462728
-0.16914769 -0.2602073 0.74849999
-0.13334446 -0.26333085 0.74824989
-0.12520242 -0.26503468 0.74849993
-0.11364025 -0.26823482 0.74700004
-0.104073 -0.26272935 0.74859989
-0.095478646 -0.26210767 0.7484616
-0.084030516 -0.26445624 0.74163991
-0.07495039 -0.26532003 0.74465221
-0.065940976 -0.26649433 0.74773914
-0.054791745 -0.26420498 0.74636668
-0.045102969 -0.26536462 0.74739134
-0.034784541 -0.26659149 0.74688005
-0.025244152 -0.26694289 0.74778259
-0.014600005 -0.26593712 0.74789661
-0.0044093258 -0.26721129 0.74823999
0.0043313392 -0.26511809 0.747657
0.015612081 -0.26826417 0.74784619
0.021143805 -0.26849833 0.74849999
0.053101562 -0.26038113 0.74900001
0.06711638 -0.26956189 0.74800003
0.073796727 -0.26849777 0.74849999
0.084830232 -0.2648671 0.74884194
0.090589412 -0.26439673 0.74828577
0.10854714 -0.26997674 0.74800003
0.11397194 -0.26907241 0.74800009
0.12334317 -0.26904923 0.74871433
0.14536369 -0.26376858 0.7489472
0.15432683 -0.26737538 0.74778265
0.16013439 -0.26867825 0.74900001
0.17554444 -0.26911107 0.7486667
0.197602 -0.26782924 0.74876922
0.20270059 -0.26740858 0.74870002
0.21796294 -0.26671278 0.74814284
0.22477891 -0.26566014 0.74697059
0.2355839 -0.26517075 0.744946
0.24525815 -0.26494703 0.7451036
0.25334823 -0.26569036 0.74787992
0.26749319 -0.26900285 0.74875003
0.27214551 -0.26867825 0.74900001
0.34598985 -0.26038113 0.74900001
0.35096812 -0.26038113 0.74900001
0.37994376 -0.26193962 0.74400002
0.38241744 -0.26193964 0.74400008
-0.38472766 -0.25440598 0.74849999
-0.35168597 -0.2514109 0.74700004
-0.34731486 -0.25403112 0.74763644
-0.31327552 -0.25801054 0.74900001
-0.30354089 -0.25549316 0.7485714
-0.29862085 -0.25449771 0.74900001
-0.28432074 -0.2572903 0.74828577
-0.26238424 -0.25494811 0.74590915
-0.25332162 -0.25595143 0.74577272
-0.24740171 -0.25581199 0.74777776
-0.21489537 -0.25042456 0.74900001
-0.20517358 -0.25394395 0.7484616
-0.19416089 -0.25498381 0.74742848
-0.18509051 -0.25515112 0.74789727
-0.17501615 -0.25423104 0.74783319
-0.15847497 -0.25208402 0.74900001
-0.14188074 -0.25042456 0.74900001
-0.13573524 -0.2505897 0.7486667
-0.11371408 -0.25466999 0.74710006
-0.10731359 -0.25484893 0.74781817
-0.090911239 -0.25627738 0.74833339
-0.08451055 -0.25571483 0.74453855
-0.075057812 -0.25523502 0.74621439
-0.068866089 -0.25540286 0.74900001
-0.052987043 -0.25898734 0.74737501
-0.048334505 -0.25892794 0.74800009
-0.020742796 -0.25872171 0.74900001
-0.014768871 -0.25573474 0.74900001
0.0052818549 -0.2561675 0.74868411
0.048953 -0.25457314 0.74900001
0.054687053 -0.25422055 0.74835473
0.064543374 -0.25281575 0.74835712
0.14436987 -0.25872171 0.74900001
0.19830115 -0.25042456 0.74900001
0.23937504 -0.25933382 0.74600005
0.24502729 -0.2579186 0.74714285
0.25140271 -0.25872171 0.74900001
0.27297521 -0.25042456 0.74900001
0.34705111 -0.25395104 0.74699998
0.35388708 -0.25449079 0.7463159
0.36064774 -0.25073779 0.74500006
0.37869442 -0.25670159 0.74316669
0.3849107 -0.25441879 0.74479073
0.39242676 -0.25104842 0.74266672
-0.39303032 -0.24673386 0.7453751
-0.38727182 -0.2457474 0.74635303
-0.36611915 -0.24347593 0.74550009
-0.35108513 -0.24407114 0.74572736
-0.34787178 -0.24582087 0.74717647
-0.33769274 -0.24876516 0.74900001
-0.32607678 -0.24876516 0.74900001
-0.28168717 -0.24212746 0.74900001
-0.27521601 -0.2423566 0.74800003
-0.26559913 -0.24553344 0.74812913
-0.25452816 -0.24810062 0.74842864
-0.20480147 -0.24652758 0.74850005
-0.18170689 -0.24876516 0.74900001
-0.17672862 -0.24876516 0.74900001
-0.15280963 -0.24365391 0.74859089
-0.14380665 -0.24524033 0.74810523
-0.13455863 -0.24485588 0.74736661
-0.12860535 -0.24544631 0.74900001
-0.091544874 -0.24765886 0.74900001
-0.083672352 -0.24615104 0.74726927
-0.075423636 -0.24582836 0.74764282
0.030699339 -0.24710573 0.74900001
0.045634154 -0.24129774 0.74900001
0.058079831 -0.24876516 0.74900001
0.064315118 -0.24838763 0.74753338
0.098735712 -0.24212746 0.74900001
0.22651134 -0.24710573 0.74900001
0.25563329 -0.24221109 0.74893737
0.26272371 -0.24204719 0.74875003
0.2721791 -0.24799134 0.74833328
0.34732839 -0.24585614 0.74369997
0.35370252 -0.24584705 0.74427277
0.36266562 -0.24604651 0.74780005
0.37982082 -0.24644591 0.74700004
0.38472679 -0.24569967 0.74855995
0.39326859 -0.2462451 0.74740005
-0.38406467 -0.23144619 0.74666673
-0.3656401 -0.2339125 0.74610007
-0.35324264 -0.23489138 0.74741185
-0.28127232 -0.23880862 0.74900001
-0.27601573 -0.23815465 0.74825001
-0.15515612 -0.23880862 0.74900001
-0.13441332 -0.23880862 0.74900001
-0.01742395 -0.23548977 0.74900001
0.044997193 -0.23748463 0.74875003
0.25681892 -0.23842578 0.7486667
0.26278532 -0.23859607 0.74833328
0.34621656 -0.23854436 0.74237502
0.35192192 -0.2355528 0.74400008
0.3758595 -0.23134121 0.74900001
0.38840929 -0.23096205 0.7486667
-0.39294529 -0.22131106 0.74875003
-0.38737357 -0.22647503 0.74800003
-0.37625885 -0.22477935 0.74650002
-0.36509949 -0.22911665 0.7477001
-0.35839233 -0.22920005 0.74833339
0.36849144 -0.22547106 0.74800009
0.37500092 -0.22387651 0.74838883
0.38577172 -0.22668958 0.7485556
0.39461729 -0.22189839 0.7485556
-0.39288008 -0.21733449 0.74862504
-0.38418138 -0.21533665 0.7473793
-0.37747434 -0.21190928 0.74850005
-0.36714754 -0.2143321 0.74900001
-0.2796129 -0.21723612 0.74900001
0.38695812 -0.21528886 0.74800003
0.39467168 -0.2165139 0.74879998
-0.39687884 -0.20617329 0.74900001
-0.37688175 -0.20833933 0.74883336
0.39643633 -0.20794332 0.74900001
0.39524415 -0.19043075 0.74800003
-0.38118005 -0.1310121 0.74000001
-0.32294127 -0.13068384 0.74750006
-0.31938371 -0.13024677 0.74500006
-0.37824154 -0.12894267 0.74066669
-0.3164537 -0.12972228 0.74200004
-0.17425388 -0.12654611 0.74024999
-0.2772606 -0.11141353 0.74050003
-0.25575951 -0.1113383 0.74000001
0.086735725 -0.11312603 0.741
0.30583301 -0.1121835 0.74016666
0.31560069 -0.11543701 0.74000001
-0.38281953 -0.10150139 0.74000001
-0.37077323 -0.10239027 0.74050003
-0.36615971 -0.10538102 0.74081475
-0.35248908 -0.10150139 0.74000001
-0.27707282 -0.10969882 0.74000001
-0.26242301 -0.10515118 0.7403
-0.2547501 -0.1058984 0.74057877
-0.245451 -0.10357453 0.74049997
-0.23608571 -0.10252608 0.74000001
-0.2106737 -0.10478035 0.74000001
-0.20586893 -0.10381216 0.74069995
-0.16203569 -0.10204788 0.74000001
-0.15457991 -0.10454614 0.73999989
0.088125043 -0.10719386 0.74350005
0.22194183 -0.10221206 0.74040002
0.25985822 -0.10314088 0.74000001
0.26581946 -0.10341392 0.74099994
0.27005959 -0.10163856 0.74100006
0.28772944 -0.10150138 0.74000001
0.29419971 -0.10329869 0.74116677
0.30497864 -0.10889143 0.74008328
0.35694921 -0.10119329 0.74075007
0.37750015 -0.10479303 0.74009079
0.38227305 -0.10805934 0.74000001
-0.38205111 -0.094955623 0.74009991
-0.37626159 -0.095216699 0.74000001
-0.36773628 -0.097894527 0.74000001
-0.35146019 -0.094114102 0.74100012
-0.34528968 -0.095714912 0.74160868
-0.33428261 -0.094325595 0.74093097
-0.32464457 -0.094098628 0.74094099
-0.31545117 -0.095337331 0.74103987
-0.30677065 -0.091983058 0.74111116
-0.28173998 -0.092670768 0.74150008
-0.27409795 -0.093834676 0.74137509
-0.26520196 -0.094932385 0.74094731
-0.25449261 -0.097179122 0.73999995
-0.2445129 -0.095030837 0.74099976
-0.23451428 -0.096377306 0.74021405
-0.2253473 -0.093818016 0.74124992
-0.21490212 -0.092665337 0.74091655
-0.20524533 -0.094906867 0.74126178
-0.19542515 -0.091643915 0.74078572
-0.18492672 -0.094205655 0.74162495
-0.17488962 -0.094377056 0.7421999
-0.1675954 -0.094586127 0.74041671
-0.15226622 -0.093491882 0.74077773
-0.14551595 -0.09419214 0.74161291
-0.13546349 -0.090707406 0.74111122
-0.1050007 -0.096053697 0.74013323
0.22114398 -0.098731846 0.74075001
0.25985822 -0.091664486 0.74000001
0.26581153 -0.094523229 0.7427333
0.27438128 -0.094588496 0.74165708
0.28339368 -0.095243849 0.74240005
0.29638484 -0.095041223 0.74183339
0.30430984 -0.092607804 0.741
0.31510842 -0.094588526 0.74055547
0.32732967 -0.091265902 0.74057156
0.33377311 -0.090996884 0.74063641
0.34229437 -0.090146661 0.741
0.3574366 -0.097455114 0.74040002
0.36205271 -0.095489949 0.74000001
0.37651694 -0.095415264 0.74050003
0.38401142 -0.091157466 0.7439
-0.39177087 -0.08151523 0.74142867
-0.38585109 -0.08407446 0.74192011
-0.37480158 -0.084503531 0.74199998
-0.36553842 -0.083896458 0.74104756
-0.35055798 -0.085956156 0.74025005
-0.34502769 -0.08443018 0.7448929
-0.33462444 -0.084406719 0.7428751
-0.32529041 -0.084296264 0.74170947
-0.31573939 -0.082440116 0.74281824
-0.30592561 -0.085113503 0.74310523
-0.29538035 -0.084013559 0.74000001
-0.28330603 -0.083801664 0.74112505
-0.27445921 -0.084334575 0.74137831
-0.26461959 -0.084499255 0.74186122
-0.25467357 -0.083647259 0.74113339
-0.24480656 -0.084389485 0.74194294
-0.23477104 -0.083026677 0.74195999
-0.22539271 -0.084739789 0.74297148
-0.21595451 -0.084690839 0.74265635
-0.20489378 -0.084857054 0.74357504
-0.19475836 -0.084548898 0.74402952
-0.18437815 -0.084610976 0.74189192
-0.17449708 -0.084632501 0.74302781
-0.16573013 -0.083333507 0.741
-0.15395066 -0.084050804 0.74190319
-0.14458217 -0.084470429 0.74158329
-0.13470222 -0.084452316 0.74144447
-0.12460629 -0.084580503 0.74018168
-0.11552709 -0.082655974 0.74114281
-0.10418249 -0.081507757 0.74053836
-0.099389851 -0.081171498 0.74150002
0.065319352 -0.080530681 0.74100006
0.073022038 -0.080260336 0.74066669
0.096230052 -0.084696405 0.74043989
0.10405938 -0.084459357 0.74049997
0.11331589 -0.082425609 0.7408461
0.14596379 -0.083996229 0.74123806
0.15440208 -0.083852611 0.74115616
0.16276689 -0.082714334 0.74059999
0.17611288 -0.083046503 0.74042857
0.25807512 -0.084207766 0.74011111
0.26596665 -0.086498857 0.74255556
0.27376643 -0.08744169 0.74475002
0.28149942 -0.088630117 0.74666667
0.2981402 -0.086446024 0.74142867
0.30383369 -0.086816132 0.74141175
0.31672099 -0.086499982 0.74070007
0.32534063 -0.084714048 0.74090898
0.33526331 -0.084534667 0.74239403
0.34509808 -0.084368534 0.74350005
0.35498732 -0.083433971 0.74365389
0.36507922 -0.082315311 0.74446166
0.37518057 -0.083694391 0.74449998
0.38589275 -0.084747978 0.74436361
0.39182314 -0.082319833 0.74075007
-0.39207736 -0.07556919 0.74178565
-0.38522565 -0.075215265 0.74224144
-0.37482843 -0.075392723 0.74231029
-0.36678761 -0.074983098 0.74040002
-0.35389134 -0.07438115 0.74204767
-0.345862 -0.075979106 0.7453872
-0.33473828 -0.075703338 0.74426675
-0.32455185 -0.075596623 0.74187499
-0.31504166 -0.075434648 0.74255884
-0.30560717 -0.074980244 0.74199998
-0.29443446 -0.074536264 0.74119985
-0.28544423 -0.074789673 0.74091303
-0.27505359 -0.075478435 0.7420857
-0.26511735 -0.07575205 0.74365532
-0.25508815 -0.075507902 0.74289656
-0.24476565 -0.075631306 0.74306077
-0.23487589 -0.075770661 0.74543768
-0.22517203 -0.075733341 0.74632138
-0.21514226 -0.075480409 0.74412507
-0.20456208 -0.075737618 0.74460006
-0.19497979 -0.076448381 0.74385709
-0.1852511 -0.075398788 0.74126661
-0.17529391 -0.075136043 0.74083328
-0.16511621 -0.075593054 0.74223524
-0.1548721 -0.075773649 0.74496311
-0.14454873 -0.075408734 0.7414
-0.13483082 -0.075487152 0.74216682
-0.12547605 -0.074502118 0.74171418
-0.11495429 -0.075411245 0.74141371
-0.10510392 -0.075398713 0.74126649
-0.098923057 -0.075536646 0.74262506
0.067752317 -0.076529883 0.74199998
0.072234787 -0.076192223 0.74100012
0.081974201 -0.074449904 0.74000001
0.097671442 -0.076183923 0.74091673
0.10419151 -0.07541278 0.7414
0.11282714 -0.076126985 0.7403571
0.12869951 -0.076909132 0.74000001
0.13175757 -0.074345656 0.74060011
0.14594753 -0.076469079 0.74068749
0.1523242 -0.077024527 0.74109095
0.16558789 -0.076362632 0.74000001
0.17296557 -0.078548618 0.74000001
0.19919731 -0.073630162 0.74000001
0.20083679 -0.073630162 0.74000001
0.25813642 -0.076772615 0.74133331
0.26464093 -0.075618632 0.74166667
0.29084003 -0.07608337 0.74800003
0.32708672 -0.077599004 0.74214298
0.33373216 -0.07645198 0.74456257
0.34576663 -0.077782892 0.74316669
0.3562412 -0.077028431 0.74312502
0.36499774 -0.07648018 0.74377275
0.3749553 -0.076717079 0.74434793
0.38463202 -0.076287016 0.74191666
0.39180899 -0.07624381 0.74150008
-0.1821921 -0.29102582 0.75100005
-0.1781294 -0.29057121 0.75850004
0.14653857 -0.29364029 0.75099999
0.15037836 -0.29396158 0.75000006
0.17364132 -0.2906383 0.75000006
-0.38319728 -0.28224882 0.75200003
-0.18053019 -0.28712004 0.75275004
-0.1795789 -0.28634268 0.75400007
-0.0058157383 -0.28066844 0.75000006
0.015202388 -0.28463289 0.751091
0.045778457 -0.28265569 0.75273687
0.055158075 -0.28316957 0.75445843
0.062568724 -0.28247982 0.75088888
0.12886292 -0.28168637 0.75050008
0.13283938 -0.28232476 0.75183338
0.14718653 -0.28923348 0.75066668
0.18361114 -0.28066844 0.75000006
0.27153432 -0.2813645 0.75075006
-0.38366127 -0.27160454 0.75483328
-0.37935781 -0.27355421 0.75100005
-0.32541382 -0.27550811 0.75200003
-0.31562087 -0.27793938 0.75294113
-0.30822411 -0.27558452 0.75200003
-0.23228131 -0.27149346 0.75066668
-0.22862773 -0.27171099 0.75050008
-0.18695565 -0.27546823 0.75200003
-0.15765302 -0.27344969 0.75300002
-0.019108854 -0.27069861 0.75000006
-0.0037424273 -0.27820051 0.75062501
0.01828385 -0.27826899 0.75025004
0.025755411 -0.27069861 0.75000006
0.037840948 -0.27240863 0.75166667
0.045085784 -0.27458277 0.75327027
0.055211462 -0.275094 0.75378132
0.063058987 -0.27621835 0.75100005
0.078461319 -0.27293906 0.75083333
0.0836569 -0.27285323 0.75050008
0.096611314 -0.27226767 0.75262511
0.10314273 -0.27211303 0.7539376
0.12877706 -0.27568355 0.75000006
0.13540244 -0.27512822 0.75302631
0.14488961 -0.27553433 0.7522974
0.16701461 -0.27218398 0.75258332
0.17308964 -0.27316022 0.75183326
0.18470639 -0.27464455 0.75128126
0.19135661 -0.27183995 0.75040007
0.20784393 -0.27171046 0.75050008
0.21123895 -0.27180126 0.75075006
0.25772637 -0.27420455 0.75050008
0.26417238 -0.27474838 0.75078958
0.27216026 -0.27700701 0.7513333
0.37617853 -0.27106589 0.75800002
-0.38170737 -0.2654714 0.75400001
-0.32224318 -0.2613067 0.75166672
-0.31986558 -0.26239043 0.75000006
-0.30281693 -0.26720917 0.75139999
-0.29503945 -0.26480818 0.75151354
-0.28655136 -0.26475209 0.75172234
-0.23363286 -0.26336277 0.75184011
-0.22792496 -0.26342952 0.75244451
-0.20268653 -0.26367906 0.75164282
-0.19862004 -0.26499358 0.75199997
-0.16506873 -0.26119229 0.75133342
-0.15765302 -0.2601034 0.75300002
-0.14263992 -0.26093647 0.75300002
-0.13673495 -0.26148307 0.75111115
-0.12545377 -0.26405206 0.75000006
-0.1055141 -0.26239043 0.75000006
-0.096652023 -0.2623904 0.75000006
-0.063730225 -0.26247889 0.7512632
-0.04255008 -0.26371413 0.75107145
-0.035371535 -0.26213676 0.75310004
-0.025034552 -0.26234901 0.75189477
-0.014838717 -0.26241085 0.75125003
-0.0058397055 -0.26279733 0.75290924
0.0091512017 -0.26357222 0.75100005
0.014648478 -0.26408508 0.75337929
0.02522007 -0.2648232 0.75357878
0.035161365 -0.26519701 0.75435889
0.044904336 -0.2648724 0.75399977
0.055014655 -0.26574472 0.75243771
0.06506905 -0.26525426 0.7537806
0.075041078 -0.26512533 0.75355017
0.084499978 -0.26390287 0.75269586
0.096437767 -0.26679447 0.75388235
0.1054657 -0.2660355 0.75563335
0.11575329 -0.26467291 0.7532416
0.12550865 -0.26469189 0.75394458
0.13471819 -0.26474947 0.75277793
0.14410499 -0.26623207 0.75087506
0.15571539 -0.26281333 0.75308698
0.16472514 -0.26518267 0.75506449
0.17461427 -0.26579657 0.75643599
0.18470272 -0.26549953 0.7563616
0.1937075 -0.26439434 0.75279403
0.20560542 -0.26392543 0.75073081
0.21461204 -0.26432899 0.75282878
0.22607961 -0.26128387 0.75100005
0.23400204 -0.26239869 0.75353342
0.25765291 -0.26332355 0.75055557
0.26468283 -0.26507738 0.75251442
0.27323586 -0.26506954 0.75561911
0.34811345 -0.26072878 0.75000006
-0.38466784 -0.25554347 0.7553913
-0.37826377 -0.25702098 0.7518
-0.32320622 -0.25473666 0.75111121
-0.31535906 -0.25377247 0.75148571
-0.30795017 -0.25356039 0.75133342
-0.29391935 -0.25497848 0.75150007
-0.28687972 -0.25384337 0.75093347
-0.24362616 -0.25461185 0.75437844
-0.23583552 -0.25586861 0.75726664
-0.22590388 -0.25436592 0.75425005
-0.20185141 -0.25661856 0.7511
-0.19507878 -0.25235742 0.75130004
-0.18789098 -0.25092611 0.75050008
-0.17102367 -0.25319919 0.75066668
-0.16611966 -0.25582361 0.75211537
-0.15482144 -0.25357226 0.75199997
-0.14436486 -0.25478408 0.75284213
-0.134316 -0.25593504 0.7514286
-0.1248485 -0.25532317 0.75253844
-0.11651631 -0.25230727 0.75288248
-0.10235833 -0.25473151 0.75055569
-0.095901795 -0.25544909 0.75234491
-0.070619673 -0.25574386 0.75000006
-0.064465128 -0.25461239 0.75267744
-0.055316437 -0.25497591 0.75421065
-0.04508999 -0.25533086 0.75484616
-0.035129085 -0.2549586 0.75505567
-0.024976013 -0.25492501 0.75405258
-0.015273361 -0.25479719 0.75116128
-0.0046988623 -0.2548916 0.7536571
0.0043991767 -0.25286618 0.7518096
0.015067744 -0.25508735 0.75422865
0.024849782 -0.25478953 0.7538237
0.035135299 -0.25467658 0.75222605
0.044788573 -0.25472423 0.75291175
0.055047005 -0.25595111 0.75060004
0.065475836 -0.25705993 0.75163645
0.075559668 -0.25547633 0.755853
0.085740589 -0.25558606 0.75677776
0.094891787 -0.25460607 0.75299996
0.10532008 -0.25461009 0.75486112
0.11575326 -0.25430295 0.75540745
0.1255666 -0.25520819 0.75505894
0.13582493 -0.25539717 0.7560513
0.14475647 -0.25416797 0.75266671
0.15518101 -0.25507861 0.75652784
0.16442619 -0.25477397 0.75623071
0.17435138 -0.25501746 0.75590909
0.18471234 -0.25425002 0.75745946
0.19427615 -0.25523952 0.7531904
0.20494917 -0.25533721 0.75264871
0.2152192 -0.25490731 0.75697142
0.22427194 -0.25555897 0.75330967
0.23591065 -0.25516072 0.75400001
0.24418743 -0.25346431 0.75172013
0.25498968 -0.25501767 0.7512728
0.26479268 -0.25483972 0.75223553
0.27272382 -0.25541562 0.75321442
0.34857759 -0.25941256 0.75100005
0.35221696 -0.25964284 0.75166672
-0.38684624 -0.24942943 0.75100005
-0.34596717 -0.24303252 0.75388002
-0.3389135 -0.24347396 0.75450003
-0.32243031 -0.2465733 0.75273693
-0.31589088 -0.24537702 0.75530291
-0.30478093 -0.24483019 0.75324452
-0.29529455 -0.24556006 0.75361127
-0.28586769 -0.24570361 0.75134623
-0.27998623 -0.24743566 0.75000006
-0.2625812 -0.24219096 0.75091672
-0.2544989 -0.24391922 0.7523244
-0.24658932 -0.24614614 0.75641942
-0.23380207 -0.24834023 0.75783342
-0.22430091 -0.24890287 0.75741673
-0.21489945 -0.24578974 0.75596148
-0.20421663 -0.24487695 0.7518751
-0.19535968 -0.24504733 0.75375611
-0.18523687 -0.244835 0.75413156
-0.17481782 -0.24545386 0.75582504
-0.16471906 -0.24390815 0.75623816
-0.15705767 -0.24667121 0.75128573
-0.14617656 -0.24276091 0.75178951
-0.12490075 -0.24474929 0.75328571
-0.11559098 -0.24527462 0.75613904
-0.10529496 -0.24552579 0.75435716
-0.095342182 -0.24452221 0.75312835
-0.086035475 -0.2422711 0.75326324
-0.073961914 -0.24187778 0.75217652
-0.065379895 -0.24527761 0.75527507
-0.055197157 -0.24479462 0.75459993
-0.045252807 -0.24477977 0.75300008
-0.03503605 -0.2451683 0.75520587
-0.025218653 -0.24507917 0.75517142
-0.014703757 -0.2453156 0.75289488
-0.0051947501 -0.24546349 0.75578952
0.00519067 -0.24526148 0.75515795
0.01441244 -0.24540088 0.75473541
0.026377924 -0.24624443 0.75452006
0.034910779 -0.24479491 0.75416291
0.044998087 -0.24546188 0.75119239
0.055059511 -0.24524654 0.75389737
0.065177284 -0.24416089 0.75434375
0.07514248 -0.24534333 0.75542116
0.08524701 -0.24653508 0.75727606
0.09527947 -0.24474177 0.75362164
0.1050851 -0.24594821 0.75525928
0.11542864 -0.24510163 0.75582051
0.1252995 -0.24507166 0.75457901
0.13471098 -0.24503244 0.75632155
0.14471026 -0.24560596 0.75724322
0.15316857 -0.24610014 0.75773698
0.16629748 -0.24559149 0.75587094
0.1749713 -0.24535887 0.75707412
0.18497615 -0.24478865 0.75778574
0.19494836 -0.2454204 0.75575572
0.20459992 -0.2447817 0.7552222
0.21405782 -0.24647018 0.75811118
0.22356462 -0.24458212 0.75380009
0.23461048 -0.24548964 0.7549333
0.24511601 -0.24623115 0.75374287
0.25368759 -0.24585493 0.75196302
0.26595688 -0.246099 0.75183344
0.27231187 -0.24451344 0.7531876
0.38466954 -0.2490973 0.75000006
-0.39604041 -0.23108053 0.75520003
-0.35219204 -0.23319845 0.75454545
-0.34548768 -0.23580301 0.75635147
-0.33528224 -0.23472732 0.75395668
-0.32487401 -0.23336665 0.75426096
-0.31551698 -0.23496328 0.75607139
-0.30470058 -0.23506276 0.75243753
-0.29528376 -0.23449482 0.75458068
-0.28497493 -0.23482758 0.75440919
-0.2755557 -0.23444551 0.7545144
-0.2655066 -0.23640271 0.75439292
-0.25449771 -0.23472947 0.75440001
-0.24652116 -0.23472781 0.75651729
-0.23794344 -0.23106673 0.75900006
-0.21103816 -0.2335891 0.75900006
-0.20516813 -0.23541875 0.75742871
-0.19324319 -0.23652641 0.75693333
-0.18441711 -0.23539141 0.75589192
-0.17462294 -0.235578 0.75744104
-0.16466129 -0.23491587 0.75639391
-0.15540157 -0.23503569 0.75551224
-0.14572416 -0.23518631 0.75602794
-0.13496655 -0.23493293 0.75442493
-0.12528697 -0.2372089 0.75704008
-0.11507524 -0.2354973 0.75538713
-0.10518569 -0.23428348 0.75274295
-0.095260389 -0.23521259 0.75643748
-0.086696781 -0.23703898 0.75781828
-0.074626647 -0.23622864 0.7562964
-0.065476529 -0.23529464 0.75727779
-0.055372652 -0.23633127 0.75770962
-0.04506658 -0.23529448 0.75502437
-0.036603142 -0.23545133 0.75533342
-0.023845077 -0.2366235 0.75500005
-0.01500645 -0.23486781 0.75151515
-0.0056788181 -0.23359959 0.75360006
0.005110648 -0.23460856 0.75338233
0.013857186 -0.23537736 0.7579999
0.025491292 -0.23307119 0.75861901
0.035470132 -0.23475437 0.7571764
0.044713926 -0.23491456 0.75422585
0.055686343 -0.23598538 0.75659382
0.064951949 -0.23734835 0.75771439
0.076222286 -0.23624115 0.75780004
0.083606467 -0.23425952 0.75826669
0.096633926 -0.23531826 0.75855559
0.10061448 -0.2380733 0.75900006
0.11730819 -0.23530822 0.75687504
0.12522769 -0.23562741 0.75678122
0.13459605 -0.23802188 0.75800002
0.14481378 -0.23617017 0.75784379
0.15132156 -0.23545274 0.75792313
0.16818294 -0.23584144 0.75759995
0.17475952 -0.23491156 0.75604784
0.18466119 -0.23504294 0.75556248
0.19119598 -0.23461246 0.75842863
0.20758416 -0.23824804 0.75866669
0.21423592 -0.23331876 0.75876468
0.22506171 -0.23503122 0.75417775
0.23438643 -0.23470236 0.75600004
0.24130659 -0.23022595 0.75900006
0.25553733 -0.23698708 0.75485009
0.26505211 -0.23748235 0.75535291
0.2739774 -0.23567016 0.75788885
0.37386885 -0.23081928 0.75000006
0.39650393 -0.23220222 0.75388885
0.40114635 -0.23099089 0.75600004
-0.40096951 -0.2275414 0.75566673
-0.39624953 -0.22623107 0.75328588
-0.36333841 -0.22511451 0.75540006
-0.35518259 -0.22561403 0.75595009
-0.34634113 -0.22416432 0.7574445
-0.3355509 -0.22939031 0.75350004
-0.32458791 -0.22848693 0.75328577
-0.31485376 -0.22581169 0.75547832
-0.30454031 -0.22470355 0.75165009
-0.29581636 -0.22599158 0.75512505
-0.28627017 -0.22442859 0.75722736
-0.27602559 -0.2249289 0.75645006
-0.26158524 -0.22674452 0.75766665
-0.25358388 -0.22992261 0.75800002
-0.24579734 -0.22893637 0.75844449
-0.23542106 -0.22349963 0.75900006
-0.22387281 -0.22376961 0.75723535
-0.21509333 -0.22450556 0.75672007
-0.20490164 -0.22509265 0.75770605
-0.19417894 -0.22446693 0.75785184
-0.18458159 -0.22549726 0.7565313
-0.17437562 -0.22509508 0.75610828
-0.16641535 -0.22593533 0.75768185
-0.15131108 -0.22790691 0.75800002
-0.14507282 -0.22533065 0.75641936
-0.13578147 -0.22499651 0.75597155
-0.11566272 -0.22646603 0.75880003
-0.10543806 -0.22882937 0.75590903
-0.095510006 -0.22852868 0.75525004
-0.089325666 -0.2294632 0.75833338
-0.068103954 -0.22854437 0.75900006
-0.055211842 -0.220697 0.75900006
-0.043490525 -0.22804478 0.75789994
-0.035694487 -0.22490337 0.7578401
-0.022872059 -0.22395389 0.75713331
-0.015043164 -0.22522394 0.75447625
-0.0053993431 -0.22499694 0.75605553
0.0050309235 -0.22626774 0.75615627
0.016205888 -0.22865489 0.75857133
0.023910485 -0.22764312 0.75854546
0.037768818 -0.22814165 0.75766671
0.042823453 -0.22896203 0.75800002
0.058905236 -0.22688259 0.75844437
0.062326986 -0.22609878 0.75885719
0.076817095 -0.22909001 0.75833333
0.086014383 -0.22900479 0.75838464
0.093246035 -0.2291833 0.75833327
0.11503078 -0.22529432 0.7579723
0.12411654 -0.22818309 0.75823081
0.13032238 -0.22854437 0.75900006
0.14872169 -0.22923349 0.75850004
0.15313613 -0.22913237 0.75816661
0.17387201 -0.22705624 0.75825
0.1859946 -0.22802594 0.75728571
0.19157429 -0.22615206 0.75850004
0.20765537 -0.22300075 0.75781822
0.21351159 -0.22517002 0.75829399
0.22624169 -0.22813082 0.75842857
0.23315933 -0.22928861 0.75828564
0.27523339 -0.22977096 0.75750005
0.34813863 -0.22207351 0.75275004
0.35726798 -0.22379276 0.75320005
0.3625513 -0.22480258 0.75100005
0.37557602 -0.22766204 0.7505455
0.38254571 -0.22661991 0.75040001
0.39504358 -0.22743373 0.75208336
0.40088105 -0.22832793 0.75550008
-0.39525872 -0.21273199 0.75245005
-0.38692111 -0.21096167 0.75114286
-0.37275305 -0.21578884 0.75166672
-0.36493701 -0.2154755 0.75409681
-0.35523647 -0.2171693 0.75453353
-0.34905669 -0.21696746 0.75383335
-0.3304303 -0.21004701 0.75900006
-0.32534346 -0.2156309 0.75500005
-0.31196171 -0.21897633 0.75500005
-0.30461112 -0.21741255 0.75595248
-0.29846302 -0.21531683 0.75818175
-0.28120637 -0.21572232 0.75199997
-0.27709189 -0.21650732 0.75500005
-0.23195408 -0.21386696 0.75790906
-0.22564276 -0.21508306 0.75722235
-0.21768448 -0.21837696 0.75640005
-0.19181187 -0.21938258 0.75833338
-0.18463205 -0.21888591 0.75758338
-0.17084312 -0.21926637 0.75600004
-0.16638084 -0.21844491 0.75779998
-0.15089545 -0.21268106 0.75760001
-0.14393979 -0.21508573 0.75718188
-0.13767494 -0.21732928 0.75833333
-0.1202329 -0.21845488 0.75900006
-0.11855132 -0.21845488 0.75900006
-0.036945999 -0.21984643 0.75800002
-0.022057628 -0.21514359 0.75750005
-0.016685694 -0.21592359 0.75768
-0.0048983381 -0.21379104 0.7562632
0.00083857402 -0.21200922 0.75700003
0.03699474 -0.21677332 0.75900006
0.14209342 -0.21004701 0.75900006
0.15218292 -0.21116805 0.75900006
0.17617239 -0.2167325 0.75885719
0.20701878 -0.21802519 0.7566154
0.21236996 -0.21809456 0.75775003
0.34953138 -0.21722351 0.75666666
0.3510406 -0.2150068 0.75785714
0.36321831 -0.21159078 0.75550002
0.37903544 -0.21117064 0.75700003
0.38567871 -0.21306299 0.75557899
0.3946698 -0.21413533 0.75249994
-0.39466751 -0.20683116 0.75440001
-0.38464022 -0.20691714 0.75513643
-0.37349373 -0.20673591 0.75603461
-0.36531374 -0.20362157 0.75733334
-0.33446318 -0.20588306 0.75837511
-0.31540379 -0.20605922 0.75825006
-0.2772772 -0.20150626 0.75850004
-0.23091246 -0.20977025 0.75800002
-0.22576188 -0.20916817 0.75842857
-0.15010475 -0.2094935 0.75700003
-0.1461978 -0.2065987 0.75800008
-0.021005891 -0.20906782 0.75850004
-0.016992606 -0.20531105 0.75823081
-0.0039836415 -0.2076045 0.75700003
0.00084012497 -0.20651825 0.75840002
0.016976748 -0.20374525 0.75870001
0.021019738 -0.20247988 0.75900006
0.14554428 -0.20823048 0.75800008
0.150796 -0.20911747 0.75766665
0.34894624 -0.20570484 0.75540006
0.3513625 -0.20614365 0.75700003
0.36680689 -0.20796111 0.75599998
0.37533459 -0.20594981 0.75542873
0.38571799 -0.20571148 0.75566667
0.39469671 -0.20551889 0.75564712
-0.36521393 -0.1988432 0.7586
-0.35060921 -0.19659436 0.75900006
-0.34782675 -0.19654255 0.75880003
-0.27736887 -0.19905087 0.75875002
-0.1468457 -0.19914252 0.75750005
-0.12355535 -0.19947127 0.75875008
-0.023526043 -0.19982579 0.75850004
-0.016877057 -0.19590709 0.75884622
0.00084078958 -0.19827594 0.75900006
0.017385179 -0.19735982 0.75846153
0.021019738 -0.19995752 0.75900006
0.38877264 -0.19885439 0.75800002
0.39391419 -0.19974676 0.75820005
-0.37415135 -0.1848233 0.75900006
-0.35901713 -0.17137067 0.75900006
-0.34022066 -0.1745811 0.75833338
-0.33839172 -0.17450361 0.75800002
-0.3606987 -0.16800751 0.75900006
-0.35854411 -0.16778617 0.75800008
-0.34113622 -0.16621637 0.75850004
-0.35878062 -0.15865481 0.75850004
-0.34857759 -0.078052379 0.75100005
-0.17595653 -0.29114586 0.76000005
-0.3913371 -0.28891423 0.76300001
-0.38964662 -0.28891423 0.76300001
0.17848223 -0.26252139 0.76000005
-0.24268554 -0.24337731 0.76086676
-0.23749791 -0.24554405 0.7610001
-0.22202493 -0.24461767 0.76042861
-0.21889329 -0.24315771 0.76000005
0.017679842 -0.24399962 0.76000005
0.085582837 -0.2417694 0.76040012
0.091817915 -0.24173021 0.76042861
0.10535015 -0.24088533 0.7608
0.11089817 -0.24129884 0.76033336
0.15747172 -0.24332462 0.76118755
0.16271468 -0.24304722 0.76160008
0.17848223 -0.2473672 0.76000005
0.18100791 -0.2482091 0.76000005
0.19784586 -0.24063201 0.76000005
0.20218772 -0.24079034 0.76050007
0.21624815 -0.24380438 0.76014298
0.23909883 -0.24231583 0.76000005
0.24451204 -0.24246284 0.76112503
0.25004348 -0.24063203 0.76000005
0.27698418 -0.24063203 0.76000005
-0.34686169 -0.23052928 0.76000005
-0.28624508 -0.23052928 0.76000005
-0.2432958 -0.23772922 0.76071441
-0.23366334 -0.23320539 0.76063162
-0.20317787 -0.23249371 0.76000005
-0.16080238 -0.23052928 0.76000005
-0.12459864 -0.23287576 0.76033342
-0.11870752 -0.23052928 0.76000005
-0.084139042 -0.23405044 0.76050007
-0.077620253 -0.23285018 0.76025009
-0.062300395 -0.23052928 0.76000005
-0.055648502 -0.23147529 0.76009101
-0.049671941 -0.23052928 0.76000005
-0.032434091 -0.23362923 0.76050001
-0.02949225 -0.2341013 0.76066667
0.015635235 -0.23401713 0.76000017
0.026603956 -0.23659094 0.76000011
0.031150198 -0.23473877 0.76000005
0.066434562 -0.23325434 0.76010013
0.072403163 -0.23305497 0.76000011
0.087227099 -0.23648812 0.7604546
0.094242267 -0.23570301 0.7601667
0.10488385 -0.23475257 0.76112103
0.11212245 -0.23504615 0.76038903
0.13494854 -0.23305105 0.76034784
0.14290382 -0.23175317 0.76033342
0.15691637 -0.23606306 0.76155555
0.16458341 -0.23484455 0.76223075
0.17511463 -0.23052928 0.76000005
0.19581081 -0.23556495 0.7610833
0.20476776 -0.23483881 0.76172978
0.21638268 -0.23568583 0.7600528
0.22226088 -0.23052928 0.76000005
0.23937947 -0.2333356 0.76000005
0.24502841 -0.23559749 0.76169682
0.25417358 -0.23343906 0.76126671
0.26528049 -0.23277685 0.7622413
0.27310643 -0.23466142 0.76066667
-0.35107115 -0.22884548 0.76000005
-0.34623528 -0.22664915 0.76016682
-0.28432214 -0.22813058 0.76011121
-0.27866802 -0.22800359 0.76000005
-0.25368389 -0.22699818 0.76111758
-0.24401534 -0.22485125 0.76060867
-0.23493633 -0.22540432 0.76069993
-0.22721437 -0.2270633 0.76037508
