# .PCD v0.7 - Point Cloud Data file format
VERSION 0.7
FIELDS x y z normal_x normal_y normal_z curvature
SIZE 4 4 4 4 4 4 4
TYPE F F F F F F F
COUNT 1 1 1 1 1 1 1
WIDTH 583
HEIGHT 1
VIEWPOINT 0 0 0 1 0 0 0
POINTS 583
DATA ascii
-0.24173352 -0.13080598 0.73586619 0.049161032 0.19391972 0.97978485 0.06906458
-0.23537217 -0.13201302 0.73590761 0.044671293 0.19290139 0.98020077 0.067516446
-0.022348838 -0.13295096 0.72397023 -0.0047325701 0.31526306 0.94899255 0.039338566
-0.014501509 -0.13298938 0.72387618 -0.0067909067 0.31726345 0.94831312 0.039823979
-0.0088055711 -0.13356932 0.72401506 -0.0083708894 0.31927794 0.94762415 0.039716776
0.084944561 -0.1330515 0.72088176 -0.011242727 0.35863978 0.93340832 0.046906959
0.099545792 -0.13018362 0.7197665 -0.017148238 0.36071828 0.93251717 0.04719777
0.10113858 -0.13015951 0.71982962 -0.016026575 0.36043188 0.93264782 0.047061156
0.14570351 -0.13604365 0.72094542 -0.024758164 0.38357916 0.92317605 0.052001931
0.15826547 -0.13008037 0.71851689 -0.023938434 0.38895246 0.92094678 0.052744772
0.16227724 -0.12994391 0.71827155 -0.026036751 0.39196277 0.91961259 0.053392377
0.17595908 -0.1374422 0.72093445 -0.036113091 0.40229872 0.91479594 0.056940373
0.21181934 -0.13770631 0.7211113 -0.054688111 0.42646742 0.90284812 0.065140359
0.26631358 -0.1340587 0.73015052 -0.014929393 0.27654141 0.960886 0.058096059
0.28235552 -0.13001986 0.7301231 -0.00054323656 0.25125208 0.96792156 0.05713217
0.29622772 -0.13102841 0.73060644 -0.00088476134 0.24763221 0.96885371 0.060425725
0.30289379 -0.12843905 0.73018754 0.0067523667 0.23714286 0.97145134 0.058638912
0.31692943 -0.12699419 0.72984278 0.0058377604 0.2369733 0.97149861 0.061801363
0.32525524 -0.12835366 0.73002642 0.0064715049 0.23823081 0.971187 0.064171866
0.33250239 -0.12792894 0.72970045 0.006498829 0.24189214 0.97028136 0.066093728
-0.31400222 -0.11986246 0.74497694 0.03060445 0.066800594 0.99729687 0.081655569
-0.01131841 -0.12603673 0.7215395 -0.0069794715 0.31880212 0.94779563 0.040209267
-0.0087539852 -0.12366907 0.72056627 -0.0082398672 0.3208088 0.94710815 0.040253926
0.0087635443 -0.12102765 0.71870106 -0.0071728844 0.33215475 0.94319761 0.040837299
0.099540614 -0.12481914 0.71782935 -0.015536017 0.36087087 0.93248636 0.047530636
0.15888055 -0.12762445 0.71749508 -0.023974482 0.38893223 0.92095435 0.052902121
0.16234319 -0.12771106 0.71731472 -0.025910836 0.39217171 0.91952705 0.053544041
0.29782325 -0.12330735 0.72850531 -0.0010497137 0.25026089 0.96817786 0.061441705
0.3056801 -0.12435243 0.7291469 0.0059504285 0.2384869 0.97112751 0.059803348
0.31552699 -0.12304648 0.72888827 0.0058377604 0.2369733 0.97149861 0.061801363
0.32394961 -0.12324172 0.72858113 0.0088667432 0.2390603 0.97096425 0.064028442
-0.32006884 -0.11600915 0.74517745 0.034751721 0.065800741 0.99722743 0.084261127
-0.31708595 -0.11631233 0.74495751 0.03306983 0.066688843 0.99722564 0.083021715
0.021268373 -0.10084494 0.7105335 -0.0054631867 0.3438645 0.93900341 0.043379098
0.046835732 -0.09529534 0.70697987 -0.0040968764 0.3555308 0.93465561 0.045878578
-0.38275573 -0.1486346 0.75320929 0.067522272 0.058687378 0.99599022 0.097336896
0.35754237 -0.14920245 0.7354731 0.0082264934 0.24048083 0.97061902 0.068268605
0.36461326 -0.14820667 0.73530293 0.0069452678 0.24124226 0.97044009 0.069827162
0.37635073 -0.14842337 0.73552072 0.0043568676 0.2435921 0.969868 0.073091909
0.38685146 -0.1484248 0.73562205 0.0046563284 0.23988056 0.97079122 0.074712127
-0.38377628 -0.14628822 0.75308663 0.067479938 0.060338743 0.99589443 0.096801743
-0.23208135 -0.13769896 0.73695809 0.043339096 0.19161895 0.98051208 0.066159636
-0.22210318 -0.14247386 0.7374481 0.039361652 0.19321966 0.98036563 0.063073829
-0.21641108 -0.14347994 0.73699427 0.038722456 0.20183614 0.97865355 0.062566906
-0.2030613 -0.14167735 0.73270518 0.047594715 0.2588011 0.96475732 0.064227633
-0.19434436 -0.14350039 0.73166454 0.047311664 0.27848718 0.95927393 0.063598327
-0.1850059 -0.14379065 0.73028737 0.046268191 0.29685283 0.95380169 0.063358136
-0.1746999 -0.14417775 0.72913253 0.044568747 0.31256011 0.94885182 0.062012557
-0.16494197 -0.14402837 0.72917634 0.039839331 0.30734909 0.95076251 0.059645865
-0.15495306 -0.14385736 0.72868592 0.036465898 0.30854428 0.95051074 0.057032723
-0.14510125 -0.14404762 0.72836798 0.034249235 0.31142488 0.94965339 0.054889593
-0.13485907 -0.14420229 0.72846752 0.029700052 0.30720884 0.95117855 0.052010193
-0.12509787 -0.14393164 0.72822005 0.0266254 0.30386761 0.95234215 0.049921006
-0.11534625 -0.14387704 0.72822922 0.021791935 0.29867467 0.95410615 0.047215313
-0.10473254 -0.14345132 0.72796667 0.017950166 0.29646778 0.95487416 0.045223199
-0.098660052 -0.14403024 0.72803098 0.015224062 0.29548499 0.95522606 0.044114705
-0.01521406 -0.14264134 0.72713655 -0.0072136149 0.31565759 0.94884574 0.039262678
-0.0072412016 -0.14158642 0.72670716 -0.0090491576 0.31773379 0.94813681 0.039067175
0.087023273 -0.14499219 0.72544616 -0.011655037 0.35830927 0.93353021 0.046276417
0.094225407 -0.14388308 0.72512579 -0.014503458 0.35738409 0.93384486 0.046189524
0.10505713 -0.14366749 0.72493583 -0.016626641 0.35969844 0.93292046 0.046160035
0.11418831 -0.14484167 0.72503597 -0.018840363 0.36490673 0.93085343 0.047192968
0.12540044 -0.14563408 0.72499782 -0.023324341 0.37080404 0.92841822 0.049268644
0.13536794 -0.14552276 0.72512633 -0.022887455 0.3736603 0.92728323 0.049747717
0.14475735 -0.14430091 0.72435719 -0.02541725 0.38187525 0.92386431 0.05103451
0.15490414 -0.14402141 0.7244643 -0.023607295 0.38585216 0.92225856 0.051581495
0.16276661 -0.14314014 0.72388697 -0.026334183 0.39207846 0.91955477 0.052983809
0.17460501 -0.14248937 0.72314137 -0.035511926 0.40192074 0.9149856 0.056412976
0.18639387 -0.14500147 0.72426921 -0.040990848 0.40819994 0.91197181 0.058468647
0.21759436 -0.14514667 0.72526938 -0.053677298 0.42083529 0.90554756 0.06497895
0.22093371 -0.14795311 0.72675389 -0.056438077 0.42110708 0.90525329 0.06545487
0.3579627 -0.1462663 0.7346282 0.0090724137 0.24188414 0.97026271 0.068585016
0.36303309 -0.14482903 0.73442477 0.0078798719 0.24016142 0.97070098 0.069149643
0.37366688 -0.14516029 0.73468012 0.0036855261 0.24587488 0.96929455 0.07280124
0.38227266 -0.14793628 0.73559272 0.0020233248 0.24503592 0.96951187 0.074465595
-0.38301727 -0.13249944 0.75149804 0.061090451 0.062456235 0.9961763 0.095357306
-0.23399927 -0.13162321 0.73582172 0.043439418 0.19223049 0.98038793 0.066946186
-0.22489561 -0.13558179 0.73640615 0.038976219 0.18978162 0.9810524 0.063674852
-0.21857546 -0.13655889 0.73587167 0.038825717 0.19796045 0.97944075 0.062931977
-0.20329055 -0.13443255 0.73075259 0.047675107 0.2591325 0.9646644 0.064712301
-0.19594361 -0.13707821 0.72981399 0.04837152 0.27897665 0.95907885 0.064805701
-0.18331797 -0.13828383 0.72807908 0.046746656 0.30322921 0.95177037 0.063750438
-0.1745251 -0.13826194 0.72726774 0.044226531 0.31127745 0.94928938 0.062180057
-0.16411892 -0.13521682 0.72619468 0.04015176 0.3086023 0.95034331 0.059961136
-0.15480632 -0.13484636 0.72554916 0.037380364 0.31087571 0.9497152 0.057602081
-0.14486597 -0.13523491 0.72547251 0.034088206 0.31160158 0.94960123 0.055215985
-0.13525914 -0.13553016 0.7256462 0.029824844 0.30798057 0.95092505 0.052464373
-0.12491795 -0.13662806 0.72584885 0.026779743 0.30507112 0.95195299 0.050127957
-0.11503483 -0.13517155 0.72546554 0.022220647 0.29987463 0.95371979 0.047790837
-0.10480261 -0.13429539 0.72516167 0.017825253 0.29677826 0.95478004 0.045723267
-0.098694474 -0.13444421 0.72515994 0.015840419 0.29481044 0.95542443 0.04448222
-0.023017399 -0.13161828 0.72360647 -0.004917434 0.31542644 0.9489373 0.039469924
-0.017985802 -0.13146827 0.72329813 -0.0060305521 0.3182095 0.94800127 0.039887205
-0.0078669293 -0.13708061 0.72524059 -0.0082889479 0.31750408 0.94822067 0.039360397
0.096450455 -0.13610403 0.72215295 -0.015077183 0.35864547 0.93335205 0.046599302
0.10461611 -0.13658209 0.72216868 -0.017249623 0.36236235 0.93187767 0.047128391
0.11467706 -0.13629517 0.72167152 -0.019197371 0.36602107 0.93040854 0.047626927
0.1238426 -0.1378344 0.72209555 -0.021181418 0.36915344 0.92912704 0.048569061
0.13824286 -0.13967991 0.72275156 -0.02233113 0.37644413 0.92617017 0.050572321
0.14536685 -0.13847727 0.72205687 -0.023812817 0.3823612 0.92370605 0.051365905
0.15451032 -0.13625365 0.72118205 -0.022885505 0.38705513 0.92177254 0.051714055
0.16192581 -0.13975525 0.72245753 -0.026050393 0.39160666 0.91976386 0.052910753
0.1753456 -0.13714811 0.72082025 -0.035565469 0.40196335 0.9149648 0.056778874
0.18655573 -0.13965885 0.72194332 -0.0400653 0.40768588 0.91224283 0.058594979
0.19457296 -0.13529086 0.71964639 -0.046453141 0.41739002 0.90753937 0.06128329
0.21981415 -0.13555369 0.7208544 -0.054961395 0.4224323 0.90472656 0.066239633
0.22410761 -0.13518092 0.72089481 -0.055885639 0.42331612 0.90425676 0.066823326
0.23653924 -0.13395581 0.72435784 -0.043407962 0.37059453 0.92777985 0.062514134
0.24480471 -0.13183168 0.7283932 -0.016524727 0.28955653 0.95701826 0.055825111
0.27701515 -0.12995002 0.73012942 -4.3499153e-05 0.25028354 0.96817261 0.055418249
0.28145036 -0.1299566 0.73009622 -0.00015172662 0.25114846 0.96794856 0.056639995
0.37643868 -0.13567035 0.7321077 0.0059870621 0.24498828 0.96950758 0.073476091
0.38359693 -0.1332318 0.73163587 0.0027421929 0.2491712 0.96845555 0.076257728
-0.31930235 -0.11874194 0.74519348 0.03306983 0.066688843 0.99722564 0.083021715
-0.3147583 -0.12192917 0.74510056 0.030072184 0.06702593 0.99729794 0.081184641
-0.30766875 -0.12282278 0.74474967 0.028387712 0.06920182 0.9971987 0.077376619
-0.21110684 -0.1234591 0.73051333 0.044488143 0.22901374 0.97240603 0.064950049
-0.1629335 -0.12691845 0.72366953 0.039028332 0.30648381 0.95107543 0.059693206
-0.15567245 -0.12799032 0.72346908 0.037179165 0.30927926 0.95024419 0.058123097
-0.14521849 -0.12896267 0.7233848 0.03439641 0.31191659 0.94948667 0.055778634
-0.13873836 -0.12944938 0.7236017 0.031623907 0.30903 0.95052636 0.053850986
-0.11251885 -0.12985493 0.72373325 0.020903673 0.29986748 0.9537518 0.047331426
-0.10388688 -0.12730215 0.72293526 0.017795769 0.29889354 0.95412052 0.046034887
-0.098696575 -0.12730287 0.72283757 0.01616938 0.29783735 0.95447969 0.044987578
-0.022914609 -0.12951705 0.72291636 -0.0049061766 0.3159909 0.94874954 0.039574966
-0.014867167 -0.12740938 0.72205412 -0.006759664 0.31814826 0.94801688 0.040144216
0.0072199595 -0.1230446 0.71965903 -0.0087647261 0.33021504 0.94386506 0.040447198
0.098262295 -0.12631589 0.71834695 -0.016079288 0.36063889 0.93256694 0.047513977
0.10263198 -0.12484645 0.71765924 -0.01612249 0.36343825 0.9314788 0.047678873
0.14185444 -0.13117675 0.71917367 -0.022558184 0.38003281 0.92469788 0.051491149
0.15605764 -0.12927783 0.71817726 -0.023167619 0.38885185 0.92100894 0.052616458
0.16344476 -0.12743445 0.7172187 -0.026133411 0.3921532 0.91952866 0.053856265
0.17280246 -0.12963334 0.71768332 -0.03338987 0.39926749 0.91622627 0.056161981
0.18349428 -0.12878399 0.71729237 -0.036732797 0.40416208 0.91394949 0.058157936
0.19652326 -0.12902762 0.7168656 -0.045017589 0.41818678 0.90724486 0.061790872
0.20098169 -0.13140273 0.71777385 -0.049507871 0.42334756 0.90461361 0.062814794
0.21833143 -0.13293315 0.71955705 -0.053690702 0.42228892 0.90486979 0.066036984
0.22407749 -0.13127889 0.71907461 -0.056238726 0.42316958 0.90430343 0.067029998
0.23344985 -0.12928922 0.72166193 -0.045741256 0.38102627 0.92343205 0.063190557
0.2458946 -0.1263375 0.72622609 -0.018491434 0.2982316 0.95431441 0.0574525
0.25626543 -0.12616119 0.72774571 -0.011537371 0.27492914 0.96139526 0.05646608
0.26527235 -0.12449749 0.72794318 -0.0070652016 0.26486588 0.96425939 0.055974036
0.27594337 -0.12512708 0.72882897 0.00027798346 0.25111085 0.96795827 0.055569053
0.28261846 -0.12434753 0.72857225 -2.9811326e-06 0.25239012 0.96762556 0.057271726
0.31661004 -0.12504233 0.72928452 0.0073868302 0.2367565 0.97154093 0.061581463
0.32401457 -0.1249887 0.72903478 0.0086717177 0.2388352 0.97102141 0.063921191
0.33236015 -0.12353498 0.72874182 0.014333872 0.23040941 0.97298819 0.063322537
-0.33108896 -0.1106787 0.74550563 0.039382584 0.065557554 0.99707133 0.087746151
-0.3248409 -0.11404751 0.74520046 0.034290936 0.065764673 0.99724579 0.085615262
-0.31734946 -0.1176124 0.74500883 0.032043036 0.066622779 0.99726355 0.082742736
-0.25249198 -0.11347778 0.7353133 0.042655505 0.16404025 0.98553097 0.070385583
-0.21143155 -0.1181495 0.72872114 0.04593122 0.23546381 0.97079718 0.066313773
-0.20878743 -0.11753353 0.72827184 0.045331057 0.23780678 0.97025412 0.065613933
-0.18207589 -0.12018629 0.72157973 0.048057128 0.31056246 0.94933736 0.065142281
-0.13330457 -0.11672842 0.71923178 0.029780757 0.31062421 0.95006615 0.053152777
-0.12459175 -0.11774499 0.71972042 0.025132056 0.30556923 0.95183814 0.050781425
-0.11424884 -0.11619183 0.71927786 0.021653343 0.30254167 0.95289016 0.048661981
-0.1050524 -0.11789154 0.71986228 0.019183921 0.30050644 0.95358682 0.047106374
-0.098976403 -0.11859521 0.72003812 0.016196018 0.29984686 0.95384985 0.045626469
0.0072455439 -0.12137306 0.71905619 -0.0089394916 0.330219 0.94386202 0.040491015
0.099098653 -0.12175583 0.71660602 -0.015213092 0.36172023 0.93216258 0.047767423
0.10249639 -0.12141047 0.71642834 -0.016077185 0.36274832 0.93174845 0.047824789
0.11738148 -0.11993292 0.71534508 -0.01945469 0.36793268 0.92964888 0.048622344
0.12570205 -0.12156669 0.7156179 -0.019435149 0.37204644 0.92801064 0.049354281
0.13400576 -0.11847558 0.71457291 -0.017309362 0.37425309 0.92716503 0.050165482
0.14556001 -0.11769859 0.71374822 -0.018855974 0.38339692 0.92339116 0.052021701
0.15272875 -0.11834883 0.71395975 -0.020267561 0.38505468 0.9226712 0.052806158
0.18854672 -0.11973171 0.71281165 -0.040814854 0.41166675 0.91042006 0.060648378
0.19495621 -0.12248565 0.71396577 -0.042715508 0.41640702 0.90817434 0.061668511
0.20843156 -0.12256045 0.71373516 -0.052595921 0.42718259 0.90263432 0.065438151
0.24965882 -0.1132997 0.72252154 -0.0182568 0.29510328 0.95529091 0.058779445
0.25249293 -0.11258151 0.7231586 -0.01473531 0.28429562 0.95862341 0.057685688
0.26570302 -0.11928782 0.72639233 -0.0062306905 0.26663038 0.96377873 0.05656882
0.27537552 -0.11903694 0.72719204 0.00069462782 0.25187784 0.96775877 0.05582438
-0.33168474 -0.10723366 0.74540704 0.04063705 0.065123983 0.99704939 0.088545516
-0.32671639 -0.10642003 0.74497712 0.037859827 0.06547872 0.99713546 0.086973362
-0.28156629 -0.10465528 0.74211711 0.020597115 0.075260267 0.99695116 0.070538379
-0.13360079 -0.11272473 0.7178629 0.030189259 0.31107005 0.94990736 0.053497963
-0.12457881 -0.11168511 0.71772259 0.025995851 0.30651742 0.95151001 0.051347878
-0.11465969 -0.11005678 0.71722591 0.022370981 0.30441347 0.95227724 0.049321517
-0.10712846 -0.11071164 0.71747178 0.019745259 0.30239505 0.95297813 0.048080135
-0.099508286 -0.11308476 0.71821165 0.015805447 0.30066252 0.95359963 0.045961622
0.067326613 -0.10867199 0.71168518 -0.0043503148 0.35817134 0.93364573 0.048503973
0.071664333 -0.10978004 0.71203554 -0.0058519342 0.35912377 0.93327159 0.048578631
0.13547242 -0.11220647 0.71209121 -0.015252536 0.37609863 0.92645407 0.050364822
0.14507136 -0.11155368 0.71128196 -0.018144611 0.38281134 0.92364836 0.052145783
0.15302818 -0.11306158 0.71170229 -0.020581113 0.38557887 0.9224453 0.053378191
0.17563745 -0.11115084 0.7096135 -0.031759843 0.40168205 0.91522831 0.057903543
0.18814681 -0.1161476 0.71121466 -0.039719455 0.41172114 0.9104439 0.060702953
0.19212842 -0.11738574 0.71196681 -0.039420627 0.41171265 0.91046071 0.061217334
0.2086798 -0.11492489 0.7100243 -0.054082021 0.42830324 0.90201521 0.066313297
0.048495125 -0.10330631 0.71073091 -0.0039243172 0.3486633 0.93723983 0.044941429
0.09923318 -0.10300409 0.70912462 -0.017227773 0.36609089 0.93041962 0.04893757
0.10294548 -0.10158388 0.70854801 -0.017548582 0.36626661 0.93034446 0.049559388
0.13783914 -0.10691325 0.70983076 -0.014300075 0.37880448 0.92536622 0.050809689
0.14163607 -0.10774011 0.71010965 -0.015360135 0.37941232 0.92510021 0.051358882
0.20395747 -0.10886812 0.70691055 -0.051487178 0.42842606 0.90210873 0.066135071
0.22282194 -0.10182191 0.70473439 -0.057659939 0.42815545 0.90186375 0.070069723
0.014312434 -0.089591518 0.70800853 -0.010264207 0.33742025 0.94129813 0.043101944
0.034864418 -0.089964531 0.70612371 -0.0057115033 0.34993738 0.93675566 0.044546459
0.18790142 -0.09450563 0.7011587 -0.038590174 0.41539061 0.90882421 0.063185595
0.22043115 -0.099895135 0.70368344 -0.056408927 0.42809811 0.90197009 0.069859728
0.22168757 -0.10003942 0.70382595 -0.056972165 0.42810377 0.901932 0.070032403
0.013121286 -0.086314149 0.70715606 -0.0098561831 0.33560315 0.94195193 0.043086689
0.034887157 -0.087846205 0.70537621 -0.0064300983 0.35080859 0.93642509 0.044689056
0.084843829 -0.08690951 0.70240122 -0.010695926 0.36814991 0.9297049 0.051239654
0.13368605 -0.089056119 0.70259374 -0.015378771 0.38053685 0.92463785 0.052211098
0.188906 -0.09161333 0.69990307 -0.037687354 0.41566959 0.90873456 0.063741796
-0.37906453 -0.29321927 0.76184922 0.069751009 0.058517482 0.99584663 0.1009269
-0.32663327 -0.29318887 0.75813568 0.042727329 0.071504928 0.99652469 0.08255367
-0.31054255 -0.29333556 0.75670916 0.030319093 0.069053538 0.99715215 0.075645357
-0.30489752 -0.29339585 0.75622785 0.026228407 0.067507513 0.99737394 0.073595397
-0.29738829 -0.29321724 0.75576705 0.022670142 0.066170447 0.99755079 0.070857905
-0.28076342 -0.29128954 0.7547965 0.015156754 0.062994272 0.99789882 0.065064684
-0.27442962 -0.29143301 0.75489181 0.015330629 0.064784691 0.99778152 0.062868811
-0.26420197 -0.29085341 0.75468814 0.012168318 0.064927682 0.99781579 0.059429985
-0.2555747 -0.29130119 0.75457215 0.011431317 0.064647354 0.99784267 0.057913337
-0.23076995 -0.29361749 0.75425225 0.005557267 0.061801072 0.99807304 0.051348604
-0.21349712 -0.29105869 0.75359571 -1.4199484e-05 0.056063 0.99842721 0.048003078
-0.20416547 -0.29060206 0.75370431 -0.0016299967 0.05688468 0.99837941 0.04604416
-0.19542183 -0.29194629 0.75384963 -0.0034127091 0.05670071 0.99838537 0.044277739
-0.18836097 -0.29374602 0.75386006 -0.0050455322 0.054822594 0.99848336 0.042864431
-0.17771497 -0.29357806 0.75462592 -0.004556058 0.062839568 0.99801326 0.042525787
-0.10062667 -0.28807867 0.76348877 -0.0027244331 0.20232868 0.97931391 0.038084347
0.019745996 -0.28006768 0.77231872 -0.020471299 0.31906456 0.94751185 0.042025413
-0.35571516 -0.28484705 0.7590214 0.0526301 0.064748034 0.99651283 0.090106986
-0.34177452 -0.28058472 0.7582109 0.046321884 0.072365314 0.99630195 0.085583761
-0.3358373 -0.28039759 0.75776201 0.045564238 0.071212061 0.99641997 0.084480196
-0.28127226 -0.28609201 0.75453043 0.015362115 0.063517056 0.99786252 0.065039106
-0.27493963 -0.28558832 0.7543928 0.013645999 0.063746996 0.99787277 0.062834762
-0.26434228 -0.28393105 0.75424939 0.011360613 0.065122478 0.99781263 0.058833756
-0.25681606 -0.28500688 0.75417858 0.011431317 0.064647354 0.99784267 0.057913337
-0.24247454 -0.28189179 0.75373089 0.0077282083 0.063436441 0.99795598 0.05369366
-0.23812884 -0.28218266 0.75364912 0.0063860822 0.062567838 0.99802029 0.053035371
-0.21107434 -0.28587091 0.7534306 -0.00062898255 0.057232533 0.99836069 0.047246769
-0.20434867 -0.28519243 0.75341392 -0.0020810426 0.056926735 0.99837619 0.045760393
-0.19796218 -0.28705373 0.75357246 -0.0031059289 0.056921948 0.99837381 0.044632204
-0.12994173 -0.27706954 0.76136839 0.0096998336 0.1927546 0.98119903 0.041157916
-0.12831201 -0.27690935 0.76156974 0.0092754522 0.19779775 0.98019898 0.041444227
-0.0093651023 -0.27890489 0.7700187 -0.011056859 0.30477399 0.95236051 0.039181776
0.33951932 -0.27798834 0.76310962 0.010592771 0.19823126 0.98009801 0.056416616
0.3408497 -0.27676314 0.76288229 0.010646787 0.19861427 0.98001993 0.056757897
-0.34152323 -0.27755287 0.75781864 0.045129593 0.071404204 0.99642599 0.08469557
-0.3353458 -0.27690998 0.75743425 0.044915061 0.071027435 0.99646264 0.08439599
-0.26243648 -0.27481899 0.75357944 0.011733698 0.064573191 0.99784398 0.058424454
-0.25905713 -0.27526391 0.75353616 0.01099628 0.064244725 0.9978736 0.057988651
-0.20551313 -0.27411988 0.75283277 -0.0025940004 0.057363607 0.99834996 0.045670707
-0.081821106 -0.26250958 0.76318431 0.0016718869 0.29596147 0.95519841 0.043199211
-0.077781111 -0.26379609 0.7638188 -0.00041700064 0.30136099 0.95351005 0.043227945
0.36538509 -0.26546311 0.76072896 0.012350524 0.20449707 0.97878927 0.064023264
-0.35260767 -0.26368722 0.75737673 0.047898363 0.069146201 0.99645597 0.087176919
-0.34489864 -0.26300165 0.75695562 0.046498585 0.07052137 0.99642593 0.085746273
0.35785237 -0.26205635 0.76022804 0.010888638 0.20480783 0.97874165 0.060746368
0.36349931 -0.26348984 0.76067466 0.0098314146 0.20615685 0.97846955 0.062809616
0.089926161 -0.15165982 0.72791553 -0.012541013 0.35913259 0.93320227 0.046083432
0.094187908 -0.15239681 0.72829318 -0.013541528 0.35840687 0.93346727 0.045962863
0.35553229 -0.15012375 0.73569596 0.0087449672 0.23957519 0.97083843 0.067553908
0.38738135 -0.15038447 0.73607361 0.004961445 0.23973449 0.97082579 0.074844025
-0.2139239 -0.14078017 0.73641545 0.037697222 0.20083055 0.97890043 0.061798241
-0.2085851 -0.14041172 0.73528808 0.039376002 0.21524224 0.97576654 0.06190088
-0.18677521 -0.14201242 0.73056364 0.044638496 0.28519833 0.95742851 0.062817194
-0.0045531564 -0.14422783 0.7276032 -0.0087498073 0.31929123 0.94761622 0.038822729
0.34928173 -0.14187755 0.73360038 0.0079389671 0.24376486 0.96980184 0.0678339
0.35689908 -0.14337651 0.73388439 0.0098458622 0.24088298 0.97050422 0.068303898
0.3603732 -0.14099973 0.73329318 0.010409798 0.23944397 0.9708544 0.068679258
0.37506831 -0.14459249 0.73435771 0.006571772 0.24315366 0.96996552 0.072529517
-0.38332877 -0.13049619 0.75040412 0.052729722 0.066777505 0.99637359 0.092575788
-0.23990712 -0.12974928 0.73561752 0.046441715 0.1935928 0.97998214 0.068436451
-0.23162009 -0.13037066 0.7355392 0.042947996 0.19115177 0.98062044 0.066253208
-0.22422504 -0.13300627 0.73587424 0.038920768 0.18993402 0.9810251 0.063891202
-0.21577646 -0.13322498 0.735228 0.036804561 0.19633563 0.97984576 0.062344827
-0.20663901 -0.13359664 0.73269552 0.042146079 0.2299908 0.97227979 0.06304004
-0.19433518 -0.13515428 0.72977632 0.045488957 0.27122787 0.96143967 0.063465483
-0.1851909 -0.13502921 0.72800183 0.045394927 0.29085454 0.95568979 0.063428499
-0.17609963 -0.13543236 0.72636443 0.044659086 0.31173328 0.94911957 0.06251473
-0.16974057 -0.13400923 0.7259146 0.041629788 0.30940825 0.95001763 0.061146457
-0.13138288 -0.13309506 0.72467273 0.030016733 0.30900657 0.95058608 0.052078295
-0.12568867 -0.13341944 0.72483778 0.026659084 0.30532014 0.95187652 0.050402977
0.21970797 -0.13520338 0.72069252 -0.054430462 0.42232862 0.90480709 0.066179968
0.34907407 -0.13558996 0.73199445 0.0058100577 0.24789837 0.9687686 0.068681203
0.35494906 -0.13556972 0.7318511 0.0085207475 0.24585512 0.96926916 0.069549292
0.36566332 -0.13334711 0.73131955 0.0090863742 0.243395 0.96988469 0.070825882
0.37474769 -0.13377021 0.73160398 0.0046695345 0.24816491 0.96870655 0.073989853
0.38504314 -0.13216922 0.73127544 0.005385268 0.24535331 0.96941876 0.075933561
-0.38920054 -0.12012113 0.74993819 0.053536028 0.069983609 0.99611056 0.093558297
-0.38369572 -0.12387608 0.74979657 0.051665243 0.068449281 0.9963159 0.092754431
-0.37558189 -0.12250771 0.75022507 0.059406556 0.062933691 0.99624807 0.095474504
-0.31231263 -0.12096872 0.74487907 0.029444437 0.067929946 0.9972555 0.079393715
-0.30559874 -0.12062088 0.74442565 0.026468886 0.069809519 0.99720913 0.075601399
-0.24369894 -0.12338586 0.73491108 0.04467475 0.18848662 0.98105907 0.069272883
-0.23481761 -0.12411307 0.73436838 0.043811675 0.19244824 0.98032862 0.067624189
-0.22504924 -0.12480373 0.73430735 0.039921176 0.18984921 0.98100132 0.064955562
-0.21556979 -0.12507533 0.73322672 0.039446529 0.20065251 0.97886801 0.063734151
-0.20554031 -0.12604223 0.73084033 0.042009331 0.23039339 0.97219038 0.063331813
-0.19574249 -0.12702522 0.72748137 0.046832684 0.27152035 0.96129256 0.064554863
-0.18551309 -0.12759902 0.72620499 0.044667646 0.28530928 0.95739406 0.063692048
-0.1765631 -0.12859285 0.72409415 0.044840228 0.31229943 0.9489249 0.063106075
-0.16726135 -0.12688421 0.72373021 0.040556505 0.30681962 0.95090318 0.060893394
-0.15414055 -0.12524386 0.72258902 0.036192197 0.30911991 0.95033413 0.057561692
-0.14557108 -0.12578736 0.72234088 0.034762979 0.31172663 0.94953573 0.056003083
-0.13474816 -0.12790231 0.72315562 0.029720355 0.30850911 0.95075697 0.052777532
-0.12499731 -0.12808684 0.72310382 0.026670495 0.30584267 0.95170844 0.050741501
-0.11593094 -0.12726793 0.7229389 0.024011249 0.30285031 0.9527356 0.048905414
-0.10727333 -0.12636079 0.72271317 0.020116648 0.2989223 0.95406538 0.047053467
-0.097984686 -0.12447888 0.72195101 0.016159896 0.29822227 0.95435965 0.045184027
0.2049066 -0.12824817 0.71631074 -0.051829565 0.42595842 0.90325695 0.064751238
0.21998666 -0.13214733 0.71926844 -0.05545697 0.42249674 0.90466624 0.066306174
0.22219884 -0.13009804 0.71919441 -0.052585393 0.41239771 0.90948498 0.065470777
0.23766644 -0.1276366 0.72292149 -0.039022285 0.35522187 0.93396717 0.0611481
0.24254088 -0.12508702 0.72566986 -0.019147165 0.30018511 0.9536888 0.056760166
0.26122242 -0.12347691 0.72746372 -0.0090504438 0.26764318 0.96347558 0.056234274
0.28222305 -0.12172121 0.72783566 0.00037507122 0.25307983 0.96744531 0.057649288
0.31640029 -0.12317475 0.72872317 0.0083625847 0.23771498 0.97129893 0.061673865
0.32510439 -0.12341931 0.72867119 0.0114156 0.2354276 0.97182482 0.063245103
0.33524027 -0.12272172 0.72842306 0.013952637 0.23259486 0.97247362 0.064435825
0.34571898 -0.12588017 0.72892362 0.014433698 0.23436987 0.97204036 0.067067899
0.35463533 -0.12688638 0.72900391 0.017885387 0.22999425 0.97302765 0.068018705
0.36463606 -0.12613019 0.72910845 0.013748312 0.23658428 0.97151369 0.070516564
0.37473467 -0.12643191 0.72965276 0.0047402144 0.24960251 0.96833676 0.074889094
0.38480592 -0.12700242 0.72983289 0.0079464242 0.24349706 0.96986908 0.075683065
0.39027464 -0.12534434 0.7291348 0.012255033 0.24065886 0.97053242 0.076526918
-0.38337362 -0.11399154 0.74888575 0.050681073 0.070569783 0.9962185 0.09282504
-0.37454498 -0.11368794 0.7494449 0.057326093 0.062652163 0.99638766 0.095324315
-0.36480087 -0.11220654 0.74899358 0.058158476 0.059892531 0.99650913 0.096024856
-0.3541612 -0.111965 0.74786299 0.054797303 0.063421644 0.9964813 0.093793049
-0.34568247 -0.11056802 0.74691397 0.050793272 0.065083131 0.99658626 0.092244469
-0.33910686 -0.11001093 0.74618733 0.045800481 0.065664202 0.99679011 0.090482488
-0.32283172 -0.11288241 0.74490553 0.032206684 0.066387832 0.99727398 0.084527493
-0.31392291 -0.11384326 0.74455178 0.030364141 0.06692566 0.99729586 0.081299268
-0.30444661 -0.11427544 0.74399495 0.027061338 0.06949164 0.99721545 0.07645116
-0.29537556 -0.11325169 0.74355358 0.02287405 0.069473758 0.99732149 0.073801957
-0.28625968 -0.1119789 0.74315828 0.019466961 0.069728836 0.99737602 0.070626669
-0.27760306 -0.11069854 0.74276865 0.016687809 0.070874259 0.99734563 0.067488596
-0.26254353 -0.11065447 0.73753822 0.036278386 0.13531296 0.99013853 0.07109756
-0.25354668 -0.11335533 0.73531228 0.042504527 0.16440967 0.98547596 0.070497431
-0.24530944 -0.11534744 0.73429608 0.042216863 0.17745531 0.98322296 0.069672495
-0.23545109 -0.11609124 0.73285103 0.042566199 0.19241637 0.98038977 0.067984626
-0.22533943 -0.11602727 0.73255503 0.040061824 0.1907554 0.98081976 0.065562002
-0.21567132 -0.11520136 0.73153472 0.038432244 0.19686086 0.97967792 0.063949317
-0.20517132 -0.11579439 0.72781312 0.043729972 0.23671208 0.97059524 0.064834058
-0.19565289 -0.11749697 0.72474182 0.047541581 0.27175048 0.96119273 0.065347522
-0.1855817 -0.11836158 0.72176731 0.048432585 0.30325508 0.9516778 0.066090442
-0.17646137 -0.1194145 0.72105783 0.045584425 0.31195769 0.94900185 0.063894443
-0.16568361 -0.11864855 0.72112715 0.040269218 0.30550978 0.95133704 0.061039213
-0.1555649 -0.11916709 0.72066784 0.036937293 0.30855435 0.95048928 0.058508791
-0.14546953 -0.11964938 0.72061837 0.033933707 0.30944288 0.95031238 0.056238174
-0.13527963 -0.11990481 0.72054386 0.030363245 0.30893126 0.95059955 0.053362258
-0.1244125 -0.12083908 0.72079593 0.025664696 0.30529842 0.95191079 0.050726112
-0.11557994 -0.12113959 0.72099543 0.023374112 0.30216867 0.95296788 0.048942916
-0.10532722 -0.11863194 0.72005993 0.0192644 0.30095124 0.9534449 0.047186468
-0.098402075 -0.11805362 0.71989119 0.016028248 0.30008796 0.9537769 0.045551032
0.10718386 -0.11867249 0.71497929 -0.018743567 0.36630708 0.93030524 0.048530124
0.11354662 -0.11912403 0.71536928 -0.017556248 0.36525479 0.93074203 0.048159402
0.12438627 -0.11865973 0.71467268 -0.018157713 0.37115338 0.92839402 0.049312174
0.13048667 -0.11770868 0.71437269 -0.017325029 0.3716774 0.9282003 0.049930699
0.15711474 -0.11905777 0.71378177 -0.023989495 0.39019385 0.92042017 0.05405144
0.16349344 -0.11943962 0.71393126 -0.02579046 0.39118227 0.9199518 0.054806046
0.19826022 -0.12070925 0.71312064 -0.044345044 0.41858244 0.90709549 0.063035287
0.20489289 -0.12330694 0.7139588 -0.051758267 0.42628872 0.9031052 0.065048546
0.21853778 -0.12202398 0.71435899 -0.054809038 0.42390856 0.90404505 0.067087442
0.22472355 -0.12038892 0.7157324 -0.050093014 0.40318081 0.91374826 0.065487109
0.23605187 -0.1206676 0.71892959 -0.043711655 0.37212893 0.9271512 0.063369483
0.24486977 -0.11979721 0.72508383 -0.014057833 0.28511247 0.95839095 0.05578262
0.2668958 -0.11683553 0.72620785 -0.0023599546 0.25848976 0.96601111 0.05548859
0.27540126 -0.1164322 0.72645056 0.00091275782 0.25283334 0.96750939 0.056162659
0.28414258 -0.11675833 0.72647136 0.0011879995 0.25367996 0.96728748 0.05855285
0.29571161 -0.11486208 0.72693199 0.013220116 0.23310646 0.97236133 0.057682857
0.30154657 -0.11635743 0.72723573 0.010234378 0.23515092 0.97190499 0.058436923
0.31754765 -0.1169959 0.72708535 0.0086993352 0.239447 0.97087044 0.06298767
0.3249611 -0.1164697 0.72697067 0.014236393 0.23332506 0.97229457 0.063153394
0.335044 -0.11693044 0.7268787 0.015184197 0.23389149 0.97214413 0.064658627
0.34414563 -0.117224 0.72680748 0.013524936 0.23645619 0.97154802 0.066974744
0.35426068 -0.11857738 0.72691071 0.018457269 0.23162267 0.97263062 0.068759717
0.36554828 -0.11756359 0.72661424 0.018853212 0.22974329 0.97306865 0.070518285
0.37342024 -0.11559161 0.72614712 0.015515466 0.23312537 0.97232288 0.073541291
0.38368493 -0.1162013 0.72616374 0.014114846 0.23623216 0.9715941 0.076507561
-0.39056951 -0.10338976 0.74863768 0.052293148 0.071282938 0.99608439 0.093681715
-0.38445905 -0.10451797 0.74821001 0.050199293 0.070946872 0.99621612 0.093159914
-0.37433931 -0.10478652 0.74752301 0.046736188 0.069043502 0.99651831 0.092111275
-0.36435145 -0.10797567 0.74875128 0.058377042 0.059604511 0.99651361 0.096352972
-0.35413894 -0.10542154 0.74740571 0.052574612 0.061890285 0.99669731 0.093959451
-0.34471986 -0.10586693 0.74660063 0.051122718 0.064806834 0.99658746 0.092573561
-0.33556792 -0.1044655 0.74561656 0.045274109 0.065808468 0.99680465 0.090333477
-0.32333261 -0.10346197 0.7445153 0.034998409 0.065395184 0.99724549 0.08625339
-0.31474304 -0.10440417 0.74389976 0.030242031 0.067590177 0.99725473 0.082538217
-0.30477694 -0.10407061 0.74338812 0.028602641 0.069028959 0.99720454 0.078215405
-0.29488531 -0.10385884 0.7429089 0.024248753 0.069739811 0.99727046 0.074747741
-0.28486747 -0.10456529 0.74260128 0.020304332 0.070115618 0.99733222 0.071216777
-0.27554604 -0.10395597 0.7417447 0.019957934 0.07755857 0.99678802 0.06824863
-0.26600516 -0.10607764 0.73860508 0.03158902 0.11603663 0.99274248 0.071011074
-0.25729838 -0.1022699 0.73359084 0.045028076 0.16496581 0.98527092 0.07271181
-0.24372992 -0.10846413 0.73287827 0.042767353 0.17877385 0.98296028 0.069896825
-0.23506078 -0.10766564 0.73114514 0.043124355 0.19278972 0.98029202 0.068624526
-0.22525541 -0.10637994 0.73077798 0.040359944 0.18948251 0.98105425 0.066328496
-0.21590489 -0.10696062 0.72989947 0.038684979 0.19668566 0.97970313 0.064827479
-0.20469517 -0.11017044 0.72691935 0.041647322 0.23176138 0.97188073 0.064302951
-0.19566454 -0.10914174 0.7224853 0.047316577 0.2706711 0.96150833 0.06573613
-0.18578421 -0.1091404 0.71897781 0.04819683 0.30190077 0.95212024 0.066889226
-0.17591566 -0.1107937 0.71811771 0.046687938 0.31222829 0.94885916 0.064856149
-0.16577245 -0.11092895 0.71867716 0.039837103 0.30555695 0.95134008 0.06148766
-0.15677461 -0.11192042 0.71897924 0.035780091 0.30256379 0.95245731 0.059085876
-0.14570449 -0.11149064 0.71783936 0.034330927 0.31123057 0.94971412 0.056877125
-0.1353063 -0.10923878 0.71692234 0.0302756 0.31006169 0.95023423 0.053999282
-0.12512709 -0.10757837 0.71630824 0.026291836 0.3080287 0.95101368 0.051788576
-0.11568861 -0.10683164 0.71605349 0.02277462 0.30625796 0.95167607 0.049739033
-0.10487516 -0.10910331 0.71691477 0.019467879 0.30366009 0.95258152 0.047888283
-0.098969392 -0.10921249 0.71693408 0.016225755 0.30243954 0.95303047 0.046448875
0.091199405 -0.11862215 0.71561277 -0.013194016 0.36160183 0.93223923 0.047481872
0.10886325 -0.11225162 0.71262145 -0.01766452 0.36626723 0.93034202 0.048770245
0.11553643 -0.11133741 0.71194273 -0.018627515 0.37088621 0.92849147 0.049439553
0.12600479 -0.11328626 0.71258104 -0.017200865 0.3731516 0.92761093 0.049881287
0.13111037 -0.11124722 0.71204954 -0.013924928 0.3724443 0.92795008 0.049501333
0.14679813 -0.10854972 0.7098093 -0.019646615 0.38481984 0.9227826 0.052831076
0.15749611 -0.11255153 0.71102726 -0.024205035 0.39016253 0.9204278 0.054635581
0.16506642 -0.1140873 0.71143609 -0.026887057 0.39382941 0.91879022 0.055570249
0.17791198 -0.11192708 0.70965403 -0.033594113 0.40531909 0.91355783 0.05860468
0.1859125 -0.11306255 0.71000159 -0.036883008 0.40958333 0.9115268 0.060156841
0.19586484 -0.1148176 0.71049744 -0.041789852 0.41685206 0.90801322 0.062865429
0.20399866 -0.11617295 0.71046573 -0.05111026 0.42741102 0.90261155 0.065296918
0.21812008 -0.1157091 0.71130103 -0.055142187 0.42479941 0.90360653 0.067494139
0.22641927 -0.11393167 0.71391022 -0.047271457 0.3930375 0.91830653 0.064900607
0.23550656 -0.11191113 0.71480513 -0.044355754 0.37907633 0.92430174 0.064500459
0.24528545 -0.10911473 0.72043329 -0.019455384 0.30389947 0.95250541 0.059019987
0.25430661 -0.107913 0.72227108 -0.009690376 0.27801767 0.96052706 0.056915831
0.26716027 -0.11062793 0.72500426 0.0024998481 0.25128725 0.96790934 0.05491621
0.27378729 -0.11012987 0.72474712 0.0013185899 0.25352412 0.96732819 0.056319453
0.28468215 -0.11181314 0.72509313 0.0017617795 0.25462988 0.96703696 0.059457131
0.29718471 -0.10849395 0.72529608 0.012724997 0.23482333 0.97195476 0.058938518
0.30470079 -0.10644724 0.72467887 0.0091274483 0.2378898 0.97124928 0.060502961
0.31607708 -0.10792769 0.72470778 0.0087948712 0.2416507 0.97032344 0.06373693
0.32481965 -0.10749463 0.72463334 0.014575494 0.23584248 0.97168201 0.06419012
0.33497542 -0.10834658 0.72463149 0.01579638 0.23610702 0.97159868 0.065683298
0.34449068 -0.10819926 0.72444272 0.013530204 0.23901051 0.97092271 0.068305738
0.35558888 -0.10526674 0.72355843 0.017998965 0.23463874 0.97191602 0.070414767
0.3648169 -0.10758476 0.72400683 0.020223621 0.23201874 0.97250104 0.071148992
0.37504435 -0.10973902 0.72462875 0.017835727 0.23177777 0.97260523 0.073739409
0.38512406 -0.10819308 0.72385371 0.020605659 0.2325446 0.97236741 0.075975455
0.39076638 -0.10828686 0.72386456 0.026123499 0.22397767 0.97424412 0.0758866
-0.39028811 -0.095322058 0.74774295 0.050440572 0.073239706 0.99603802 0.09326455
-0.38533264 -0.094359688 0.74748158 0.050599068 0.072179057 0.9961074 0.093788639
-0.3741312 -0.094663881 0.74678236 0.047743041 0.070670329 0.99635649 0.092705421
-0.36465234 -0.094384402 0.74728686 0.055098385 0.065022126 0.99636155 0.095135175
-0.35544059 -0.093628787 0.74725854 0.057278402 0.059968714 0.99655551 0.096072532
-0.33489838 -0.099196479 0.74524385 0.044908963 0.06547565 0.9968431 0.090520769
-0.32623556 -0.098471276 0.74442762 0.037841599 0.065583713 0.99712926 0.08778324
-0.31289592 -0.098690048 0.74342364 0.029923918 0.067818619 0.99724883 0.082188085
-0.30412453 -0.095877737 0.74285883 0.030524071 0.069184408 0.99713677 0.079228349
-0.29484227 -0.094766624 0.74229652 0.025615789 0.069927119 0.99722314 0.076233298
-0.28555343 -0.095418617 0.74198157 0.021560367 0.070341088 0.99728996 0.072539814
-0.27584037 -0.098990045 0.74135274 0.020665908 0.077836536 0.9967519 0.068999395
-0.25458309 -0.095902614 0.73244226 0.044527337 0.16449746 0.98537195 0.072883643
-0.24941659 -0.095930278 0.73229218 0.04097962 0.16385286 0.98563325 0.071567766
-0.23415463 -0.095195986 0.72869545 0.045665182 0.19199488 0.98033291 0.070170544
-0.223464 -0.10066883 0.72958237 0.038797222 0.19023329 0.98097199 0.066049539
-0.21501197 -0.10003621 0.72847456 0.039220445 0.19654284 0.97971052 0.065255642
-0.20121631 -0.101703 0.72420251 0.042693116 0.23699707 0.97057182 0.064768307
-0.19513088 -0.10144017 0.72034895 0.047699455 0.26991847 0.96170098 0.066412605
-0.18683735 -0.10451121 0.72068465 0.043814842 0.27269647 0.96110195 0.064384244
-0.17618497 -0.1069034 0.71678424 0.046591919 0.31304517 0.94859469 0.065252379
-0.16462882 -0.10289349 0.71626431 0.038713325 0.30409583 0.95185453 0.061710816
-0.15696901 -0.10301267 0.71601349 0.036711458 0.30392313 0.951989 0.059901372
-0.14393522 -0.10496013 0.71582937 0.033458509 0.31026113 0.95006239 0.056912348
-0.13545708 -0.10236797 0.71450579 0.031410083 0.31226829 0.94947457 0.05479046
-0.12542108 -0.10178043 0.71416217 0.02774757 0.31150177 0.94984037 0.052752167
-0.11499035 -0.10238258 0.71457607 0.023933295 0.30818802 0.95102435 0.050523169
-0.10508038 -0.1027633 0.71470553 0.020319212 0.30710837 0.95145762 0.048816949
-0.098971188 -0.10197243 0.71439928 0.017390918 0.30643696 0.9517321 0.047432136
0.051069774 -0.10438967 0.7112413 -0.002566932 0.34913981 0.93706715 0.045095034
0.089103982 -0.10417423 0.7097894 -0.013141229 0.36460045 0.93107134 0.048951942
0.095543325 -0.10357053 0.70927304 -0.017451154 0.36705524 0.93003541 0.049209591
0.10670311 -0.10301133 0.70886338 -0.016862322 0.37007126 0.92885035 0.049386736
0.11504611 -0.10553338 0.70967674 -0.01816831 0.37104785 0.92843598 0.049841423
0.12530455 -0.10520259 0.70959121 -0.01436973 0.37480718 0.9269914 0.049953442
0.13531585 -0.10462693 0.70905077 -0.01331224 0.37780651 0.92578888 0.050449081
0.14547138 -0.10530656 0.70858306 -0.01875704 0.38373184 0.92325407 0.052760299
0.1544932 -0.10584092 0.70851535 -0.021550549 0.38742602 0.92164886 0.05465224
0.17625719 -0.10621995 0.70718807 -0.033074409 0.40470174 0.91385043 0.059198853
0.18440478 -0.10621586 0.70712858 -0.035061307 0.40751532 0.91252506 0.060215741
0.19689909 -0.10995873 0.70799428 -0.043839775 0.41990742 0.90650749 0.063652746
0.20191987 -0.10936779 0.70744997 -0.048295494 0.42457867 0.90410203 0.065297566
0.22010861 -0.10564242 0.7088443 -0.04931346 0.4047353 0.91310322 0.066020764
0.22603405 -0.10599953 0.71029985 -0.04768664 0.39535317 0.91729051 0.065882847
0.23624055 -0.10388355 0.71186441 -0.042815115 0.37629998 0.92550808 0.065028004
0.24508299 -0.10139876 0.71743178 -0.020062093 0.31027526 0.95043504 0.05952052
0.25443897 -0.10005653 0.71982908 -0.0093125394 0.28008977 0.95992863 0.057657752
0.26123407 -0.10369428 0.72185689 -0.0050408575 0.26889005 0.96315771 0.057025868
0.27463076 -0.10318228 0.72280103 0.0024217675 0.25480664 0.96698898 0.05712026
0.28557053 -0.1020583 0.72324455 0.0081742536 0.24424922 0.96967804 0.057722911
0.29840758 -0.10226525 0.72372353 0.010719291 0.23672563 0.97151738 0.059320349
0.30449954 -0.1008127 0.72314751 0.00987498 0.23947252 0.97085291 0.060951363
0.31423813 -0.10290275 0.72329557 0.010226641 0.2429997 0.96997243 0.063923255
0.32540694 -0.10069469 0.72300971 0.016786085 0.23409556 0.97206867 0.064017005
0.33529913 -0.099607356 0.72232276 0.016087566 0.23829918 0.97105855 0.066545852
0.34178686 -0.099651247 0.72213191 0.013553292 0.24224161 0.97012126 0.068611614
0.35901749 -0.10090064 0.72253346 0.021444121 0.23055252 0.97282356 0.070270553
0.36416754 -0.10029846 0.72221959 0.02036831 0.2328003 0.97231126 0.071943447
0.37626866 -0.10007937 0.72179383 0.017829539 0.23910566 0.97082984 0.076068826
0.38452309 -0.098658256 0.72115952 0.016199121 0.24336384 0.96979976 0.079699993
0.38998502 -0.10022354 0.72157347 0.019779162 0.23788457 0.97109205 0.079220481
-0.39023948 -0.085002787 0.74690753 0.050031371 0.073791951 0.99601787 0.093153395
-0.38670871 -0.087645322 0.74642879 0.046263378 0.075341158 0.99608403 0.092026316
-0.37376001 -0.089378349 0.74640501 0.047880221 0.070639059 0.99635214 0.093163624
-0.36324358 -0.087999396 0.74579418 0.047546372 0.070019573 0.99641186 0.092891715
-0.35367745 -0.084679686 0.7466867 0.057729039 0.059592098 0.99655211 0.096698739
-0.34887069 -0.082294509 0.74604136 0.054896843 0.059917036 0.99669266 0.096011281
-0.31667045 -0.084727004 0.74295807 0.03552692 0.066644892 0.99714404 0.086336739
-0.30053854 -0.087546125 0.74214393 0.029088067 0.068969689 0.99719459 0.078871705
-0.2945922 -0.084827289 0.74171543 0.027349615 0.069167033 0.99723011 0.07738778
-0.28683177 -0.085603915 0.7413258 0.022882786 0.070583642 0.99724334 0.07443288
-0.25367928 -0.089629188 0.73132271 0.045315485 0.1648259 0.98528117 0.073317051
-0.24933714 -0.089993238 0.73131406 0.041834459 0.16370434 0.98562205 0.072399944
-0.2345984 -0.089670271 0.72759193 0.046323519 0.19235569 0.98023129 0.071161911
-0.18517029 -0.09272363 0.71741205 0.043538246 0.27144635 0.96146828 0.064877838
-0.16337845 -0.094114378 0.71323824 0.039075229 0.30486646 0.95159316 0.062230512
-0.15911146 -0.095259577 0.71330452 0.038272887 0.30649355 0.95110297 0.061358366
-0.12531437 -0.095888302 0.71199781 0.028558096 0.31436676 0.94887197 0.053495131
-0.11449611 -0.095859163 0.71215725 0.023603784 0.31096408 0.9501285 0.050837077
-0.10536391 -0.094610885 0.71151733 0.020799877 0.31264007 0.94964391 0.049841493
-0.099185079 -0.094386831 0.71168262 0.018413134 0.31018826 0.95049679 0.048544858
0.037696164 -0.093018785 0.70739114 -0.0063541578 0.34825072 0.9373799 0.044326652
0.04024715 -0.098501369 0.71012878 -0.0053413166 0.34106794 0.94002348 0.04359084
0.059888121 -0.092279814 0.70660794 -0.0036927441 0.35246441 0.93581796 0.047004241
0.063183695 -0.095085442 0.7077803 -0.0044633341 0.35174459 0.93608534 0.046997454
0.077289261 -0.092404351 0.70573515 -0.009350053 0.359936 0.93293017 0.048964515
0.084010378 -0.094135128 0.70654827 -0.011655757 0.35982728 0.93294615 0.04847296
0.095457993 -0.098862939 0.70768636 -0.015877098 0.36615992 0.93041646 0.049157869
0.10481305 -0.10007655 0.70796984 -0.015609613 0.36889818 0.92933869 0.049785875
0.11549751 -0.098650694 0.7069397 -0.015233008 0.37426415 0.92719704 0.050232135
0.1271691 -0.097371839 0.706321 -0.012920892 0.37856114 0.92548609 0.050410207
0.1352938 -0.09743388 0.70592517 -0.0153223 0.38041392 0.92468941 0.051775042
0.14467926 -0.10131618 0.70704883 -0.018164039 0.38266292 0.92370945 0.052756917
0.15535457 -0.10229284 0.70682788 -0.022809811 0.38899678 0.92095667 0.055115748
0.16888236 -0.097872309 0.70394969 -0.027755847 0.40071142 0.91578382 0.058480676
0.17685792 -0.10051581 0.70449668 -0.032476854 0.40749481 0.91262984 0.060150735
0.1830252 -0.098567799 0.7034452 -0.034568302 0.41045702 0.91122448 0.061468471
0.19696049 -0.096117362 0.70140916 -0.043547988 0.42181081 0.90563744 0.065218441
0.20792887 -0.098962545 0.702115 -0.053464472 0.43129358 0.90062612 0.0681042
0.21728413 -0.098267257 0.70272154 -0.055223852 0.42814422 0.90202153 0.069411434
0.22660305 -0.095458902 0.70554793 -0.047682844 0.39782429 0.91622168 0.066986822
0.23525564 -0.095741719 0.70836115 -0.043105781 0.3778955 0.92484426 0.065795481
0.2461706 -0.094739102 0.71615952 -0.016727692 0.30163753 0.95327592 0.059007425
0.25432554 -0.093919925 0.71783817 -0.010211014 0.28258121 0.959189 0.058840681
0.29692754 -0.085043378 0.71906984 0.011523275 0.24165276 0.97029436 0.061369926
0.3047055 -0.088650584 0.71970379 0.011939769 0.24344712 0.96984071 0.063070752
0.3116774 -0.08985889 0.7197879 0.011213467 0.24557348 0.96931314 0.064462654
0.38800141 -0.093145736 0.71981907 0.02018654 0.2381316 0.97102308 0.079382136
0.39037114 -0.0906251 0.71943325 0.029617649 0.22502048 0.97390378 0.076922134
-0.36236095 -0.075054765 0.74439013 0.04307897 0.071467094 0.99651223 0.092294462
-0.35541493 -0.076570347 0.74530584 0.05120961 0.065310501 0.99655008 0.095319755
-0.30036968 -0.075010099 0.74125946 0.030505506 0.069652773 0.99710476 0.080580518
-0.29708776 -0.077582195 0.74125522 0.028579686 0.069930263 0.99714237 0.07887736
-0.28321066 -0.077507772 0.74063373 0.022474766 0.070848063 0.99723387 0.073859908
-0.12396544 -0.0873487 0.70909101 0.028446024 0.31690106 0.9480319 0.05413707
0.037111551 -0.087385617 0.70512545 -0.007318188 0.35192376 0.93600005 0.044915468
0.040222734 -0.08689791 0.7058931 -0.0047908789 0.34577319 0.93830591 0.04417133
0.077376977 -0.089479148 0.70462453 -0.0079931486 0.35980618 0.93299282 0.049263429
0.085751131 -0.089410469 0.70439196 -0.013598631 0.36262816 0.9318347 0.049262635
0.092760295 -0.089125291 0.70474082 -0.014801006 0.36283872 0.93173438 0.048028097
0.11827887 -0.089436084 0.70339519 -0.011091442 0.37802926 0.92572719 0.050418764
0.12759644 -0.091789052 0.70393997 -0.014021844 0.37963429 0.92503035 0.051138572
0.1355584 -0.090328097 0.70275491 -0.016482808 0.38355157 0.92337233 0.052684486
0.14276555 -0.090079278 0.70230752 -0.018418653 0.38523829 0.92263329 0.053656027
0.15627417 -0.089586541 0.70109248 -0.021378895 0.39358354 0.91904026 0.056205716
0.16585857 -0.092178836 0.70157439 -0.026144654 0.39970708 0.91627002 0.058433484
0.17223473 -0.094524413 0.70240641 -0.028512839 0.40217173 0.91512018 0.059391726
0.18754625 -0.091030307 0.69955993 -0.0378628 0.41611058 0.90852541 0.063888259
0.19682845 -0.092923284 0.69982934 -0.043777201 0.4227778 0.90517539 0.065910093
0.20708169 -0.093777396 0.69941109 -0.052704588 0.43307382 0.89981627 0.068486936
0.21730278 -0.092661552 0.70126045 -0.051848706 0.41895798 0.90652406 0.068792328
0.22642238 -0.09002012 0.70370662 -0.045840051 0.39377815 0.91806179 0.066930562
0.23604423 -0.089344196 0.70552403 -0.042090699 0.38070732 0.92373717 0.066309698
0.2430152 -0.083439328 0.71006799 -0.022865649 0.3239212 0.9458077 0.061792474
-0.35212201 -0.29164141 0.75905901 0.050127894 0.064414695 0.99666339 0.088863075
-0.34415168 -0.29192635 0.75833428 0.044673584 0.064544708 0.99691439 0.085571848
-0.33436465 -0.2919209 0.75791329 0.041708838 0.066499554 0.99691433 0.082144551
-0.32357088 -0.2913174 0.75766015 0.03942474 0.071119599 0.99668837 0.080893107
-0.3137852 -0.29204541 0.75683171 0.031781193 0.069520786 0.99707413 0.076715626
-0.30571836 -0.29172435 0.7561363 0.026228407 0.067507513 0.99737394 0.073595397
-0.29555064 -0.29187554 0.75556529 0.021309936 0.065897241 0.99759883 0.070227087
-0.28507534 -0.29238495 0.75511491 0.017525714 0.064208932 0.99778259 0.067325674
-0.25100943 -0.29135883 0.75442308 0.0099312207 0.063642599 0.99792331 0.056524973
-0.23477823 -0.29116023 0.75417298 0.0064748679 0.062408563 0.99802971 0.052647602
-0.22471145 -0.29212868 0.75402474 0.0040439414 0.060498614 0.99816006 0.050052267
